ply
            format ascii 1.0
            element vertex 45154
            property float x
            property float y
            property float z
            property uchar blue
            property uchar green
            property uchar red
            end_header
836.894608 -1189.116192 1760.947990 155 140 94
836.885357 -1189.064407 1761.069107 149 137 101
836.885357 -1189.064407 1761.069107 149 137 101
836.885357 -1189.064407 1761.069107 149 137 101
836.883831 -1189.087391 1761.030388 96 84 42
836.882019 -1189.051342 1761.083031 95 84 46
836.889076 -1189.091969 1760.971069 180 166 119
836.887169 -1189.083290 1760.982132 116 101 55
836.878872 -1189.036846 1761.079788 98 86 44
836.874390 -1189.024734 1761.056328 167 154 110
836.875629 -1188.974094 1761.131668 113 102 58
836.880016 -1189.006901 1761.054420 198 185 139
836.870384 -1188.978291 1761.134911 100 91 48
836.875629 -1189.010811 1761.055183 115 102 57
836.865902 -1188.951015 1761.156082 185 173 132
836.865902 -1188.951015 1761.156082 185 173 132
836.867905 -1188.949966 1761.144447 168 155 111
836.867046 -1188.940811 1761.154175 114 101 57
836.994267 -1188.088417 1761.769867 144 126 73
836.994553 -1188.097858 1761.749840 129 111 55
836.994553 -1188.097858 1761.749840 129 111 55
836.984921 -1188.085842 1761.794090 122 105 56
836.736202 -1188.033104 1762.798500 138 145 145
836.997700 -1188.084507 1761.675262 190 170 112
836.997700 -1188.084507 1761.675262 190 170 112
836.957359 -1188.114262 1761.719131 187 170 114
836.957359 -1188.114262 1761.719131 187 170 114
837.011909 -1188.011742 1761.594391 169 148 86
836.944199 -1188.110638 1761.714745 185 167 113
836.944199 -1188.110638 1761.714745 185 167 113
837.026596 -1187.946701 1761.511612 169 146 84
836.916161 -1188.118553 1761.677933 127 110 54
836.916161 -1188.118553 1761.677933 127 110 54
836.897278 -1188.130188 1761.495972 158 139 78
836.909866 -1188.076591 1761.496925 159 138 77
836.864090 -1188.143063 1761.573601 192 174 115
836.846066 -1188.177586 1761.583328 144 127 71
836.960316 -1187.934113 1761.388016 215 192 130
836.937523 -1187.979698 1761.409760 172 149 87
836.821461 -1188.182449 1761.627388 163 147 100
836.821461 -1188.182449 1761.627388 163 147 100
836.806965 -1188.249302 1761.553001 135 118 67
836.890793 -1188.046074 1761.413765 221 198 136
836.812115 -1188.178825 1761.491585 193 175 116
836.856937 -1188.064098 1761.375809 224 203 141
836.767101 -1188.213634 1761.538696 184 167 116
836.795235 -1188.131809 1761.411095 157 137 79
836.801434 -1188.088322 1761.344719 208 188 127
836.806583 -1188.070869 1761.307526 155 134 73
836.818981 -1188.016129 1761.294556 166 145 84
836.594486 -1189.322186 1760.831642 153 136 80
836.687660 -1188.235283 1761.569023 125 117 88
836.655140 -1187.184334 1761.594772 78 69 55
836.364651 -1187.887096 1762.124634 149 145 140
836.514854 -1189.319134 1760.594749 79 72 53
836.519432 -1189.079094 1760.733032 80 72 55
836.534214 -1189.000893 1760.691071 83 74 54
836.515808 -1189.082623 1760.719490 74 67 49
836.509991 -1189.089203 1760.723877 77 69 52
836.503696 -1189.094162 1760.729218 69 61 44
836.512184 -1189.077663 1760.680771 83 73 55
836.506557 -1189.075089 1760.687447 81 74 55
836.481380 -1189.031792 1760.760498 71 63 50
836.487961 -1189.106846 1760.725021 70 62 48
836.440372 -1189.075470 1760.934258 118 121 117
836.494160 -1189.091301 1760.694313 82 74 57
836.494160 -1189.091301 1760.694313 82 74 57
836.497784 -1189.073467 1760.684204 78 69 52
836.499977 -1189.066982 1760.668564 81 71 53
836.389828 -1188.052464 1761.673927 151 156 157
836.388397 -1188.047600 1761.678886 151 156 157
836.558819 -1188.011456 1761.034775 78 71 55
836.465549 -1189.133930 1760.752678 70 63 48
836.465549 -1189.133930 1760.752678 70 63 48
836.500168 -1188.873959 1760.722351 75 68 53
836.469078 -1189.131069 1760.735321 66 59 44
836.471272 -1189.139938 1760.712433 80 73 58
836.470699 -1189.115906 1760.724640 69 62 47
836.479282 -1189.101791 1760.692596 79 72 57
836.496258 -1189.118576 1760.618210 79 71 52
836.466408 -1189.126778 1760.725594 72 66 53
836.460400 -1189.129925 1760.731316 63 57 44
836.460400 -1189.129925 1760.731316 63 57 44
836.480141 -1189.210320 1760.509491 82 72 54
836.222744 -1187.987137 1762.221336 91 90 86
836.223698 -1188.015747 1762.198639 91 90 86
836.490154 -1188.845730 1760.722160 77 70 55
836.492062 -1188.662720 1760.817528 80 74 61
836.386490 -1187.286854 1761.958885 147 153 152
836.481094 -1188.901901 1760.733795 67 64 50
836.493969 -1189.037514 1760.606003 80 72 55
836.470127 -1189.099693 1760.660362 73 67 53
836.454773 -1189.131641 1760.707283 71 65 53
836.502743 -1189.004898 1760.569954 87 77 59
836.477184 -1188.904190 1760.721397 67 61 48
836.462402 -1188.903427 1760.770226 229 225 216
836.445141 -1189.143658 1760.727501 70 62 49
836.445141 -1189.143658 1760.727501 70 62 49
836.462212 -1188.928986 1760.759163 66 57 47
836.448479 -1189.137077 1760.712051 69 63 52
836.467361 -1189.093304 1760.650635 67 64 50
836.445236 -1189.136696 1760.700607 71 63 53
836.445236 -1189.136696 1760.700607 71 63 53
836.480045 -1188.869762 1760.682678 75 68 53
836.470127 -1188.902760 1760.698318 71 62 52
836.494637 -1188.953304 1760.559845 84 74 56
836.437130 -1189.146519 1760.668945 96 89 80
836.437130 -1189.146519 1760.668945 96 89 80
836.434460 -1189.142132 1760.712433 78 69 59
836.465168 -1188.901901 1760.695648 247 243 233
836.460876 -1189.188290 1760.548592 85 77 64
836.436558 -1189.130306 1760.700226 74 65 55
836.458015 -1188.879299 1760.706139 250 248 238
836.463356 -1188.852596 1760.692024 73 67 54
836.463356 -1188.852596 1760.692024 73 67 54
836.486626 -1188.990974 1760.531235 84 74 56
836.454964 -1188.872814 1760.697365 246 243 236
836.455631 -1188.903332 1760.690689 250 248 238
836.426735 -1189.345169 1760.612297 69 61 48
836.387062 -1191.058445 1759.827423 193 190 185
836.423588 -1189.122391 1760.682297 202 196 186
836.428547 -1189.133930 1760.670853 219 213 202
836.454868 -1188.890457 1760.665703 251 250 239
836.422729 -1189.139652 1760.688972 81 72 62
836.423016 -1189.129925 1760.679626 188 182 173
836.445999 -1189.045429 1760.598564 74 65 55
836.420727 -1189.179134 1760.651970 188 182 173
836.419582 -1189.095020 1760.678482 239 236 226
836.419773 -1189.123344 1760.649109 85 79 70
836.414909 -1189.133263 1760.646248 239 236 228
836.412334 -1189.137840 1760.639572 100 90 82
836.411476 -1189.140987 1760.633278 247 243 234
836.404514 -1189.125443 1760.641479 83 77 64
836.435413 -1188.936234 1760.582542 81 73 60
836.434650 -1189.257908 1760.449409 85 76 62
836.417103 -1188.866043 1760.630035 244 243 233
836.354160 -1188.321972 1761.085510 201 196 187
836.422443 -1189.030552 1760.559273 245 243 233
836.411953 -1188.849354 1760.619736 223 222 212
836.391735 -1189.125061 1760.569763 213 207 198
836.390114 -1189.129639 1760.584831 240 235 231
836.405277 -1188.831711 1760.597992 83 76 63
836.402893 -1188.859367 1760.560036 91 84 70
836.398411 -1189.045620 1760.527611 235 232 222
836.398411 -1189.045620 1760.527611 235 232 222
836.383724 -1189.073563 1760.586548 252 250 241
836.393070 -1188.833714 1760.589027 80 74 63
836.380959 -1189.078236 1760.574532 71 66 57
836.400986 -1189.059830 1760.497665 85 78 63
836.383915 -1189.112282 1760.549927 78 71 62
836.386204 -1189.106750 1760.535812 85 77 66
836.383057 -1189.122295 1760.540771 247 247 237
836.372375 -1189.118290 1760.535431 81 76 66
836.372375 -1189.118290 1760.535431 81 76 66
836.371422 -1189.121437 1760.529518 245 243 236
836.403084 -1190.184116 1760.023499 174 165 129
836.366940 -1189.120674 1760.515785 83 80 69
836.366940 -1189.120674 1760.515785 83 80 69
836.281300 -1188.443756 1760.954475 95 90 81
836.360264 -1189.110661 1760.501099 82 76 65
836.357689 -1189.110279 1760.491943 86 82 71
836.395645 -1188.391972 1760.358238 171 163 135
836.349964 -1189.077854 1760.460854 86 77 67
836.331367 -1188.975525 1760.453987 107 98 88
836.311722 -1188.630390 1760.478592 96 91 82
836.379814 -1190.573597 1760.004425 69 61 48
836.301708 -1188.993740 1760.401535 101 95 88
836.309052 -1189.062500 1760.362244 96 90 83
836.297989 -1188.756561 1760.384369 186 183 175
836.294365 -1189.019394 1760.375786 99 93 86
836.295223 -1188.824463 1760.357666 205 202 194
836.295223 -1188.824463 1760.357666 205 202 194
836.309052 -1189.006233 1760.299873 106 100 93
836.295509 -1189.076138 1760.357475 99 93 86
836.276436 -1188.932228 1760.370636 98 92 85
836.278343 -1188.908291 1760.348320 115 111 106
836.276150 -1188.953018 1760.361862 98 92 85
836.292362 -1189.026070 1760.305595 95 91 85
836.292362 -1189.026070 1760.305595 95 91 85
836.283493 -1188.802910 1760.318184 106 102 97
836.283588 -1189.042759 1760.313797 105 101 96
836.282158 -1188.981342 1760.269165 108 104 99
836.249924 -1188.698578 1760.333061 108 105 97
836.258793 -1189.007092 1760.257721 115 112 104
836.384678 -1190.784168 1759.918785 70 57 35
836.184025 -1188.887978 1760.273743 122 119 111
836.174393 -1188.855362 1760.247231 185 186 184
836.409473 -1190.829754 1759.882736 138 132 125
837.823963 -1190.134144 1759.700775 198 188 145
837.119102 -1190.383911 1759.755516 18 9 1
837.838078 -1189.699268 1760.935402 186 197 201
837.475300 -1190.118599 1759.869957 121 112 105
837.475300 -1190.118599 1759.869957 121 112 105
837.544346 -1190.083027 1759.804535 218 203 154
836.133289 -1190.972328 1759.735489 97 100 99
837.516880 -1190.089226 1759.818840 206 195 154
837.575150 -1189.999485 1759.844971 170 152 106
837.473869 -1190.065479 1759.846497 224 211 163
837.474632 -1190.058327 1759.845352 174 156 109
837.474632 -1190.058327 1759.845352 174 156 109
836.695576 -1190.457630 1760.121155 126 131 130
837.468719 -1190.059280 1759.852028 247 229 181
838.438511 -1189.318275 1759.314156 87 81 82
837.459278 -1190.056229 1759.857368 216 203 152
837.459278 -1190.048695 1759.855270 170 152 106
837.457085 -1190.049934 1759.854889 170 152 106
838.506603 -1189.182091 1759.444046 151 119 100
837.445545 -1190.026951 1759.894562 58 47 39
837.135792 -1190.280151 1759.839249 206 195 154
837.428093 -1190.032291 1759.872246 166 149 100
837.411404 -1190.031147 1759.890747 187 170 118
836.570454 -1190.527248 1760.112381 208 218 220
837.422180 -1190.023136 1759.875488 170 153 104
837.411880 -1190.017891 1759.882736 159 142 94
837.415409 -1190.014076 1759.877396 212 195 146
836.159611 -1190.940094 1759.783745 112 105 77
838.506794 -1188.970089 1759.777260 91 47 39
837.397766 -1190.007591 1759.893799 170 153 102
837.062168 -1190.019035 1760.600090 66 72 71
837.031174 -1190.041542 1760.592079 82 87 88
837.041092 -1190.031052 1760.602570 82 87 88
837.181187 -1189.884472 1760.750198 82 87 88
837.377453 -1189.677334 1760.960770 82 87 88
835.849762 -1191.382408 1759.302711 208 214 217
837.975407 -1189.026356 1761.659050 82 87 88
837.317371 -1190.016651 1760.009193 87 78 68
837.380409 -1189.986324 1759.905815 150 133 82
837.373257 -1189.989281 1759.919739 173 156 105
837.374401 -1189.973450 1759.910583 208 191 140
837.744522 -1189.339161 1761.071587 97 96 92
837.360001 -1189.966202 1759.924507 160 145 93
836.656761 -1190.382862 1760.259628 72 73 69
836.731529 -1190.296364 1760.344505 72 73 69
838.508224 -1188.773441 1759.679222 44 89 133
837.322712 -1189.941978 1759.957695 215 201 148
837.306309 -1189.939404 1759.976196 162 145 94
837.324142 -1189.919376 1759.960175 160 143 92
837.298775 -1189.927101 1759.995270 155 138 87
838.531876 -1188.659000 1759.671021 54 97 136
837.292576 -1189.925766 1759.993744 238 221 172
837.292576 -1189.925766 1759.993744 238 221 172
837.278938 -1189.925003 1760.026169 122 108 60
837.293625 -1189.918613 1759.989357 209 192 142
837.685204 -1188.980961 1761.865997 80 81 76
837.277985 -1189.921379 1760.028648 119 105 58
837.696171 -1188.900089 1761.960983 76 75 72
837.276268 -1189.911079 1760.018921 216 202 153
838.254642 -1188.958645 1759.304810 125 137 147
838.254642 -1188.958645 1759.304810 125 137 147
838.576412 -1188.522434 1759.655571 42 47 62
837.275410 -1189.895439 1760.017586 149 135 87
837.732601 -1188.996124 1761.405373 36 35 31
837.268257 -1189.889812 1760.026741 130 117 68
836.146832 -1191.124630 1759.598351 170 175 177
837.260818 -1189.889050 1760.039520 195 181 133
837.764454 -1188.940620 1761.426926 207 219 221
837.251854 -1189.889431 1760.054207 222 207 159
835.995388 -1191.221333 1759.477997 208 214 217
837.737370 -1188.880348 1761.662674 54 55 50
837.677288 -1188.783836 1762.074661 194 200 205
838.649559 -1188.399124 1759.500694 129 151 157
837.238693 -1189.877701 1760.071373 130 115 69
837.561321 -1188.959599 1761.875916 83 84 83
837.229729 -1189.877129 1760.099792 147 136 101
837.238693 -1189.873981 1760.077095 218 204 155
837.238693 -1189.873981 1760.077095 218 204 155
837.262535 -1189.848900 1760.036087 209 192 141
838.658333 -1188.304329 1759.620476 120 129 136
837.238884 -1189.857483 1760.064507 213 198 149
837.229824 -1189.851379 1760.092163 135 121 72
837.230396 -1189.852047 1760.083580 231 216 167
837.213898 -1189.854908 1760.119438 95 81 44
838.338852 -1188.593197 1760.073090 42 39 31
837.227917 -1189.845181 1760.082817 193 178 129
837.210274 -1189.844894 1760.136986 112 103 71
836.117077 -1191.128826 1759.770966 205 202 197
837.221813 -1189.837551 1760.087967 150 136 84
837.217712 -1189.835262 1760.103798 126 111 65
837.227345 -1189.832115 1760.078812 154 139 89
837.208176 -1189.831352 1760.134697 115 101 58
837.238026 -1189.814854 1760.072517 198 183 134
837.223244 -1189.824104 1760.092354 200 185 135
837.206364 -1189.825439 1760.123634 113 98 52
837.225342 -1189.809322 1760.092926 141 127 78
837.222099 -1189.809227 1760.098267 221 208 153
837.197113 -1189.817810 1760.153389 211 198 154
837.212086 -1189.808273 1760.111427 145 130 81
837.215996 -1189.806080 1760.103798 225 211 159
837.215996 -1189.806080 1760.103798 225 211 159
837.216568 -1189.799213 1760.106850 153 138 87
837.205410 -1189.801407 1760.123253 188 174 125
837.188911 -1189.802933 1760.162735 235 222 171
837.197113 -1189.787769 1760.143471 142 128 79
837.174797 -1189.786243 1760.211945 106 96 65
838.284874 -1188.599682 1759.332848 134 136 137
837.178326 -1189.786625 1760.185051 179 168 126
837.199974 -1189.766884 1760.136986 202 188 136
837.199974 -1189.766884 1760.136986 202 188 136
838.838959 -1187.585449 1760.231400 41 42 52
837.173653 -1189.777184 1760.191727 212 201 151
837.189960 -1189.773083 1760.146141 231 218 160
837.185764 -1189.772129 1760.158920 136 122 74
838.311672 -1188.545418 1759.306335 49 49 49
837.176704 -1189.772892 1760.175896 131 117 69
837.176704 -1189.772892 1760.175896 131 117 69
838.322639 -1188.520432 1759.316063 49 49 49
837.180138 -1189.770603 1760.170746 242 231 176
837.161446 -1189.762211 1760.215569 205 191 142
837.182713 -1189.754963 1760.156250 142 128 79
837.152004 -1189.758587 1760.236931 100 88 51
838.523006 -1188.178062 1759.436607 152 152 152
837.166882 -1189.738560 1760.183144 132 117 66
837.168217 -1189.733505 1760.188675 205 192 136
837.168217 -1189.733505 1760.188675 205 192 136
837.162209 -1189.731789 1760.194397 136 120 73
837.138176 -1189.732552 1760.268974 119 109 78
837.156773 -1189.720821 1760.212708 127 112 65
837.145519 -1189.719868 1760.232925 122 109 64
837.134647 -1189.718628 1760.259247 98 86 49
837.138271 -1189.715672 1760.250473 122 106 61
837.148952 -1189.708042 1760.225487 142 132 85
837.133884 -1189.706993 1760.261154 104 92 49
837.132549 -1189.708710 1760.255432 174 164 117
838.565445 -1188.030910 1759.308434 81 79 79
837.120533 -1189.702129 1760.306358 120 111 78
836.598206 -1190.522671 1759.814262 251 255 251
837.139130 -1189.698505 1760.239410 123 110 64
837.141132 -1189.694500 1760.231781 211 200 144
837.130165 -1189.693451 1760.254097 137 126 76
837.131500 -1189.693737 1760.238266 222 211 152
837.602329 -1188.249588 1762.260246 210 219 222
837.602329 -1188.250160 1762.259483 208 214 217
837.147617 -1189.670753 1760.230446 230 218 169
837.146950 -1189.666080 1760.236549 141 130 85
837.143803 -1189.660549 1760.237694 241 229 176
837.111950 -1189.678288 1760.300827 122 109 67
836.909962 -1190.019321 1760.087013 148 134 85
837.118912 -1189.675999 1760.272980 207 195 146
837.118912 -1189.675999 1760.272980 207 195 146
837.108135 -1189.670467 1760.322189 164 151 112
837.127876 -1189.665985 1760.256386 137 123 74
837.105370 -1189.668941 1760.326576 86 74 38
837.097645 -1189.653111 1760.387802 101 91 62
837.117195 -1189.665222 1760.279846 183 168 123
837.125206 -1189.660263 1760.264015 145 133 83
837.352657 -1188.691521 1761.820030 208 214 217
837.352657 -1188.691521 1761.820030 208 214 217
837.112141 -1189.659023 1760.294151 128 112 69
837.099266 -1189.643192 1760.342216 174 160 120
839.050198 -1186.783981 1760.256767 59 61 72
837.108994 -1189.645481 1760.297012 136 122 73
837.103271 -1189.645958 1760.309410 193 179 132
837.088490 -1189.632607 1760.386848 145 135 101
837.108040 -1189.638710 1760.297203 229 215 167
837.096977 -1189.636803 1760.330009 205 193 145
837.095642 -1189.630032 1760.330391 133 121 74
837.095642 -1189.630032 1760.330391 133 121 74
837.096596 -1189.627075 1760.326195 219 205 156
837.112141 -1189.617538 1760.293579 136 124 76
837.106037 -1189.619637 1760.304642 140 126 78
837.077904 -1189.647388 1760.332108 133 121 74
837.082577 -1189.614677 1760.376740 113 99 57
837.077618 -1189.601994 1760.423660 138 127 89
837.095261 -1189.618683 1760.320663 204 190 142
837.080288 -1189.607430 1760.386467 193 179 137
837.096214 -1189.609241 1760.318565 226 213 160
837.066650 -1189.595795 1760.441399 80 68 34
837.079430 -1189.602089 1760.381508 109 94 55
837.090588 -1189.603519 1760.338974 144 131 84
837.083817 -1189.605522 1760.346031 124 107 64
837.071514 -1189.595413 1760.406303 100 86 47
837.064934 -1189.586258 1760.444450 81 69 32
838.072014 -1188.550186 1759.007645 229 174 105
837.081909 -1189.595222 1760.360718 128 114 67
837.081909 -1189.595222 1760.360718 128 114 67
837.077904 -1189.588070 1760.377312 117 104 59
837.074947 -1189.585304 1760.374260 200 188 139
837.074947 -1189.585304 1760.374260 200 188 139
837.077332 -1189.577293 1760.371590 135 121 73
837.064362 -1189.574909 1760.408974 207 193 150
837.082291 -1189.570045 1760.355949 146 132 84
837.082291 -1189.570045 1760.355949 146 132 84
837.057304 -1189.569950 1760.441780 168 154 112
837.056637 -1189.559078 1760.466576 162 147 108
837.079525 -1189.567089 1760.364342 148 134 86
837.066746 -1189.570045 1760.397911 184 171 125
837.075710 -1189.562702 1760.365295 227 215 161
837.067986 -1189.561653 1760.385132 218 204 153
837.767696 -1186.892319 1763.818169 72 77 76
837.045765 -1189.544582 1760.492706 90 80 40
837.070465 -1189.555931 1760.381317 148 133 87
837.050819 -1189.551640 1760.451317 165 152 108
837.047672 -1189.543343 1760.478020 108 99 56
837.057209 -1189.536381 1760.415649 112 100 56
837.031364 -1189.515400 1760.541344 127 115 80
837.043571 -1189.529610 1760.455513 124 111 66
837.028027 -1189.489746 1760.588455 129 118 86
837.046242 -1189.526463 1760.441208 184 173 123
837.064552 -1189.510727 1760.400009 210 196 144
837.044716 -1189.519501 1760.442352 125 109 66
837.046337 -1189.519787 1760.434723 133 118 70
837.046337 -1189.519787 1760.434723 133 118 70
837.052536 -1189.511776 1760.424614 149 135 85
837.039471 -1189.513111 1760.466194 193 178 132
837.040615 -1189.509296 1760.462189 118 102 61
837.047577 -1189.502621 1760.432243 218 201 150
837.025928 -1189.498043 1760.515785 192 179 135
837.032795 -1189.498138 1760.490990 113 97 53
837.038994 -1189.498425 1760.458755 120 106 58
837.019062 -1189.502048 1760.516548 113 100 55
837.034988 -1189.490986 1760.475159 124 110 62
837.012672 -1189.450359 1760.636520 112 102 69
837.041378 -1189.491558 1760.448456 207 195 147
837.050247 -1189.482689 1760.430145 144 127 76
837.034416 -1189.490414 1760.461617 117 103 54
837.039471 -1189.486122 1760.452080 137 123 76
837.042236 -1189.482021 1760.443306 220 206 152
837.042236 -1189.482021 1760.443306 220 206 152
838.200855 -1187.895870 1759.682465 73 68 59
837.039375 -1189.472485 1760.455894 199 185 132
837.039375 -1189.472485 1760.455894 199 185 132
837.031937 -1189.480686 1760.462189 206 193 137
837.009335 -1189.462471 1760.568047 101 89 47
837.037468 -1189.462566 1760.462379 144 130 79
837.037468 -1189.462566 1760.462379 144 130 79
838.109398 -1188.023281 1759.685516 73 68 59
837.014866 -1189.464474 1760.535240 119 105 59
837.000561 -1189.441490 1760.629845 148 135 98
837.028027 -1189.460945 1760.486031 137 121 71
837.002659 -1189.448547 1760.576630 182 168 118
837.018967 -1189.449215 1760.512543 124 109 62
837.578392 -1188.554287 1760.241318 218 221 218
836.997032 -1189.438152 1760.601997 171 158 114
836.996651 -1189.434910 1760.609245 103 90 47
837.016392 -1189.444542 1760.512733 209 195 144
837.003708 -1189.441299 1760.563087 121 106 57
836.989117 -1189.415741 1760.658264 123 112 74
837.013149 -1189.437008 1760.527611 134 120 69
836.993694 -1189.432144 1760.584450 112 96 49
836.996460 -1189.435482 1760.566521 106 90 48
837.011909 -1189.431190 1760.522270 116 99 49
836.985302 -1189.407253 1760.646629 98 84 43
836.991978 -1189.422131 1760.590172 121 105 59
836.991978 -1189.422131 1760.590172 121 105 59
837.004089 -1189.421177 1760.550499 118 103 54
837.007427 -1189.421654 1760.530472 233 217 162
836.980724 -1189.394188 1760.674858 85 72 34
836.986065 -1189.409828 1760.624313 103 87 45
836.986065 -1189.409828 1760.624313 103 87 45
836.984253 -1189.404869 1760.619736 164 150 102
836.994553 -1189.408302 1760.571861 211 197 146
836.994553 -1189.408302 1760.571861 211 197 146
836.992168 -1189.404678 1760.576248 119 103 57
836.992168 -1189.404678 1760.576248 119 103 57
836.992931 -1189.408588 1760.562897 115 99 54
836.991405 -1189.396095 1760.589409 115 97 49
836.977482 -1189.389515 1760.640144 119 103 55
836.986828 -1189.393139 1760.589027 203 187 134
836.981392 -1189.388752 1760.614967 198 184 131
838.039780 -1187.531185 1760.519028 68 55 29
836.991215 -1189.385128 1760.570908 123 108 59
837.598896 -1188.548565 1759.987259 121 118 127
836.972904 -1189.369202 1760.636330 209 192 142
836.972904 -1189.369202 1760.636330 209 192 142
836.986256 -1189.360142 1760.582924 138 120 67
836.986256 -1189.360142 1760.582924 138 120 67
836.976624 -1189.359093 1760.607338 129 113 61
836.968899 -1189.350319 1760.647392 122 105 60
836.567593 -1190.268612 1760.139275 102 88 52
836.953545 -1189.322186 1760.741234 101 87 45
836.972141 -1189.346027 1760.626793 189 172 120
836.972141 -1189.346027 1760.626793 189 172 120
836.616611 -1190.178204 1760.147095 221 207 154
836.954784 -1189.325333 1760.717010 103 89 42
836.946774 -1189.290237 1760.804367 131 118 80
838.059330 -1187.332630 1760.580635 74 62 34
836.944771 -1189.311790 1760.756683 106 90 46
836.951065 -1189.313316 1760.731506 176 161 114
836.961365 -1189.325523 1760.641479 191 177 121
836.935520 -1189.272690 1760.789108 113 97 54
836.952496 -1189.292717 1760.679817 143 125 75
836.934376 -1189.266014 1760.783768 194 178 133
836.938190 -1189.266014 1760.759544 181 165 119
836.923504 -1189.236927 1760.847473 157 143 101
837.968159 -1187.389183 1760.533905 204 211 209
836.945438 -1189.267826 1760.713196 112 97 46
836.943436 -1189.263248 1760.725784 114 98 49
837.898064 -1187.524891 1760.499954 204 211 209
836.952209 -1189.262199 1760.686874 148 129 72
836.947536 -1189.260483 1760.705757 207 192 135
837.079144 -1187.714577 1762.544823 41 36 27
836.933231 -1187.821007 1763.102913 72 69 65
836.940002 -1189.233494 1760.731506 135 119 65
836.931229 -1189.229202 1760.759735 109 94 41
836.927795 -1189.221764 1760.776520 222 204 151
836.927795 -1189.221764 1760.776520 222 204 151
836.907768 -1189.197254 1760.887718 106 92 50
836.939812 -1189.200783 1760.754204 137 122 67
836.923122 -1189.193153 1760.797310 119 103 51
836.888599 -1189.015102 1761.196899 48 41 23
836.922741 -1189.184761 1760.790634 131 114 58
836.922741 -1189.184761 1760.790634 131 114 58
836.916542 -1189.170265 1760.820007 123 106 55
836.891747 -1189.117336 1760.951614 100 86 43
836.900139 -1187.045479 1764.234543 89 86 82
836.889935 -1189.107513 1760.954094 180 167 121
836.890507 -1189.087582 1760.959816 161 146 99
836.870193 -1189.060783 1761.061668 93 81 39
836.866951 -1189.013577 1761.136436 136 126 89
836.861610 -1188.960171 1761.146927 187 175 130
837.012482 -1188.235378 1761.716843 119 99 50
837.017918 -1188.236427 1761.691284 117 100 44
837.148094 -1188.120651 1761.403847 168 144 78
836.959553 -1188.232040 1761.680603 125 108 54
836.957645 -1188.228703 1761.651802 139 121 62
836.970806 -1188.228512 1761.606789 145 126 67
836.992550 -1186.122322 1764.339256 82 84 84
837.059212 -1188.097382 1761.316490 174 150 84
836.942387 -1188.169193 1761.402321 216 194 129
836.911488 -1187.768269 1762.023544 112 105 77
836.847591 -1188.217354 1761.632156 125 111 61
836.875343 -1187.908077 1761.918640 112 105 77
837.100792 -1186.369228 1763.137245 47 41 28
836.808586 -1188.167381 1761.724472 112 105 77
836.785793 -1188.134480 1761.728859 48 42 23
836.744213 -1188.133430 1761.694527 56 52 33
836.675167 -1188.935089 1760.744095 209 187 122
836.821842 -1188.074875 1761.127090 217 196 135
836.591625 -1188.741779 1761.221886 100 98 72
836.539745 -1188.863850 1760.787582 73 63 44
836.540318 -1188.944912 1760.721588 84 73 51
836.323833 -1190.744781 1759.849930 224 211 163
836.516666 -1188.541317 1760.910225 86 78 68
836.238670 -1185.122013 1764.061356 102 98 94
836.166859 -1186.026859 1763.770676 151 158 161
836.324883 -1190.741634 1759.849739 224 211 163
836.388874 -1187.670231 1761.787224 68 65 57
836.492538 -1188.600636 1760.804176 98 91 82
836.458778 -1188.799286 1760.799408 220 212 202
836.463642 -1188.751030 1760.804749 231 225 216
836.203957 -1185.851097 1763.527107 102 98 94
836.398602 -1188.772964 1760.979652 126 124 116
836.498260 -1188.628101 1760.699463 85 74 54
836.456394 -1188.747883 1760.773849 63 54 44
836.486530 -1188.624573 1760.727882 77 69 56
836.478138 -1188.633823 1760.746765 243 240 230
836.463928 -1188.687325 1760.746002 255 253 247
836.464214 -1188.725853 1760.692215 71 65 54
836.419868 -1188.919544 1760.713005 229 225 215
836.460400 -1188.722038 1760.680962 70 64 51
836.465931 -1188.781261 1760.610199 76 67 53
836.453438 -1188.768291 1760.655975 70 64 51
836.452579 -1188.639641 1760.717201 75 66 56
836.424541 -1188.645077 1760.688591 236 234 221
836.413574 -1188.552380 1760.696602 238 237 224
836.359024 -1188.150787 1761.085129 125 114 93
836.481571 -1188.305569 1760.487556 96 91 71
836.473083 -1188.393307 1760.464859 98 90 67
836.403179 -1188.858318 1760.526848 83 76 61
836.344051 -1188.173962 1760.982132 111 99 66
836.342621 -1188.154984 1760.973740 161 150 118
836.326694 -1188.147736 1761.016655 130 122 101
836.301899 -1189.934254 1760.362053 58 56 48
836.344147 -1190.704727 1759.827995 18 9 1
836.333561 -1188.386250 1760.577011 92 86 75
836.349106 -1188.655281 1760.466957 134 125 111
836.331081 -1188.622189 1760.454941 96 88 75
836.115456 -1187.682915 1761.330414 196 205 208
836.306000 -1188.748550 1760.429192 95 89 78
836.306000 -1188.748550 1760.429192 95 89 78
836.303043 -1188.785267 1760.413933 95 89 78
836.293030 -1188.865280 1760.375214 100 94 83
836.300850 -1188.648415 1760.368919 164 159 150
836.302185 -1188.586140 1760.366440 175 170 161
836.295319 -1188.683319 1760.335541 175 170 161
836.218834 -1188.222599 1760.480499 95 93 86
836.289883 -1188.829422 1760.270882 113 106 97
836.249352 -1188.720226 1760.321999 106 103 95
831.065559 -1192.498398 1759.631348 79 86 89
831.065559 -1192.498398 1759.631348 79 86 89
831.098080 -1192.513847 1759.587479 67 75 75
836.024857 -1190.738487 1759.673500 170 170 164
836.049652 -1190.709114 1759.689522 60 65 61
836.133099 -1190.670013 1759.709549 143 144 154
837.774372 -1190.118504 1760.052681 31 50 70
836.066341 -1190.698814 1759.696579 200 207 208
836.050987 -1190.708256 1759.688950 47 47 42
836.020947 -1190.746593 1759.659576 88 91 89
837.597847 -1190.114117 1759.774780 195 181 133
837.563515 -1190.120029 1759.793282 85 77 66
835.996532 -1190.805054 1759.666824 181 168 124
835.995579 -1190.810013 1759.664726 181 168 124
835.995197 -1190.812016 1759.663963 181 168 124
837.510204 -1190.041924 1759.814835 225 209 157
837.436008 -1190.064526 1759.862328 201 188 148
837.439251 -1190.055943 1759.858894 234 219 170
835.994434 -1190.816307 1759.662056 181 168 124
837.421513 -1190.042210 1759.867668 229 210 159
837.396336 -1190.021038 1759.884453 208 191 140
837.379360 -1190.020180 1759.902573 213 196 145
837.379360 -1190.020180 1759.902573 213 196 145
837.385941 -1190.017319 1759.897423 219 202 151
837.374306 -1190.018463 1759.911728 167 150 99
837.374496 -1190.014553 1759.907722 213 196 145
837.390327 -1190.008068 1759.889412 173 156 105
837.354755 -1189.996910 1759.928703 225 208 157
837.363911 -1189.985561 1759.914017 228 212 159
837.369156 -1189.982319 1759.909248 176 160 107
837.354088 -1189.986134 1759.923172 163 146 95
837.344837 -1189.984894 1759.930038 172 155 104
837.361526 -1189.973068 1759.919930 213 196 144
837.361526 -1189.973068 1759.919930 213 196 144
837.366581 -1189.964676 1759.912872 214 198 145
837.366581 -1189.964676 1759.912872 214 198 145
837.360191 -1189.966679 1759.919548 221 205 153
837.348938 -1189.970684 1759.928894 215 199 146
837.325096 -1189.974880 1759.952736 156 139 88
837.329769 -1189.971447 1759.944153 160 144 91
837.337303 -1189.967537 1759.937286 160 143 93
837.323570 -1189.970970 1759.954262 223 206 155
837.331295 -1189.966106 1759.947014 239 222 171
837.342358 -1189.955044 1759.939003 161 144 93
837.344837 -1189.953423 1759.934616 203 186 135
837.358856 -1189.944744 1759.919548 167 150 99
837.320518 -1189.957714 1759.955978 234 217 166
837.336636 -1189.949799 1759.939384 236 219 168
837.321091 -1189.952755 1759.957504 174 157 106
837.346458 -1189.941502 1759.929085 221 205 152
837.315273 -1189.945126 1759.962082 170 154 101
837.295437 -1189.948750 1759.989929 199 183 134
837.314892 -1189.940166 1759.963608 221 205 152
837.292862 -1189.945602 1759.987068 148 133 84
837.363148 -1189.542103 1760.954857 70 71 69
837.280369 -1189.944458 1760.009193 143 128 84
837.311745 -1189.936352 1759.966278 169 153 100
837.300491 -1189.935970 1759.978485 224 208 155
837.293053 -1189.932537 1759.987450 226 210 157
837.293053 -1189.932537 1759.987450 226 210 157
837.272835 -1189.933395 1760.020447 197 183 134
837.294388 -1189.930153 1759.983063 161 144 93
837.335014 -1189.906788 1759.952164 214 197 146
837.277412 -1189.928436 1760.005569 154 137 87
837.270260 -1189.928722 1760.015678 148 133 82
837.296200 -1189.918900 1759.984970 150 134 81
837.279606 -1189.921951 1760.008430 220 203 152
837.277508 -1189.919472 1760.004425 153 136 85
837.272167 -1189.918709 1760.015106 144 128 75
837.267208 -1189.916992 1760.023689 155 141 90
837.289429 -1189.908028 1759.992599 212 196 144
837.282848 -1189.909172 1759.999847 139 122 73
837.189198 -1189.964390 1760.033798 69 61 42
837.299919 -1189.897251 1759.986687 147 130 79
837.306023 -1189.893913 1759.982109 210 195 140
837.716103 -1189.585686 1760.020065 171 158 115
837.250519 -1189.902210 1760.057259 196 182 133
837.267971 -1189.896011 1760.021210 218 205 149
837.246799 -1189.899540 1760.055161 131 116 67
837.237263 -1189.900017 1760.072708 173 160 120
837.252712 -1189.896584 1760.046196 224 209 160
837.286186 -1189.888096 1759.997940 165 149 96
837.240505 -1189.897156 1760.065079 128 115 71
837.275028 -1189.889145 1760.012436 167 151 98
837.284851 -1189.882565 1760.005760 170 154 101
837.253094 -1189.892483 1760.042763 149 134 85
837.237072 -1189.891338 1760.075569 130 118 75
837.240791 -1189.892483 1760.063362 136 121 75
837.252808 -1189.890289 1760.032463 143 126 79
837.252808 -1189.890289 1760.032463 143 126 79
836.480331 -1190.359974 1759.853745 236 222 170
837.256145 -1189.884758 1760.038757 208 194 145
837.249279 -1189.882278 1760.043716 149 134 82
837.277031 -1189.871883 1760.012817 150 133 82
836.481762 -1190.354729 1759.856796 196 181 135
837.222290 -1189.876461 1760.105133 129 116 85
837.250900 -1189.874935 1760.046005 242 229 176
837.245178 -1189.877224 1760.050011 150 134 81
837.256336 -1189.870167 1760.038948 151 134 83
837.232971 -1189.870930 1760.074234 136 122 74
837.252235 -1189.866543 1760.042191 208 192 139
837.217426 -1189.867115 1760.115051 138 123 90
837.236881 -1189.867401 1760.070038 199 184 135
837.263584 -1189.858723 1760.036087 210 194 141
837.233257 -1189.863968 1760.077477 208 193 144
837.227440 -1189.864349 1760.087585 212 198 149
837.259007 -1189.856148 1760.042763 206 190 137
837.234688 -1189.861107 1760.070419 140 124 76
837.234688 -1189.861107 1760.070419 140 124 76
837.245750 -1189.856720 1760.056877 222 206 153
837.246418 -1189.858055 1760.051155 163 147 93
837.218285 -1189.860535 1760.104561 187 174 128
837.219238 -1189.861488 1760.099220 135 119 76
837.211323 -1189.856243 1760.126686 152 139 104
837.268162 -1189.844036 1760.037804 204 188 135
837.254333 -1189.849854 1760.047340 145 130 76
837.234211 -1189.853001 1760.080147 157 142 93
837.234402 -1189.854431 1760.074425 212 197 148
837.281609 -1189.832878 1760.029221 153 136 86
837.228394 -1189.853668 1760.083008 227 213 162
837.249374 -1189.847755 1760.048866 215 199 146
837.246323 -1189.848518 1760.052490 157 141 89
837.211132 -1189.856148 1760.103035 184 171 125
837.247086 -1189.844704 1760.056877 201 184 133
837.228489 -1189.849663 1760.078812 136 121 70
844.279289 -1185.136795 1758.125687 103 94 97
837.265301 -1189.831638 1760.047340 166 150 97
837.233639 -1189.845657 1760.073090 142 127 78
837.215233 -1189.848518 1760.099411 130 116 68
844.003582 -1185.316658 1758.138657 49 40 43
844.003582 -1185.316658 1758.138657 49 40 43
837.232304 -1189.842224 1760.076332 202 185 136
837.249660 -1189.834595 1760.059166 213 196 145
837.249660 -1189.834595 1760.059166 213 196 145
837.238693 -1189.836788 1760.071945 148 131 82
844.018459 -1185.250950 1758.232880 37 27 30
844.018459 -1185.250950 1758.232880 37 27 30
837.225628 -1189.841175 1760.086823 217 201 150
844.156551 -1185.160255 1758.190536 95 88 91
837.199116 -1189.835262 1760.149765 177 167 128
837.234402 -1189.833069 1760.076332 215 198 147
837.220478 -1189.838028 1760.092735 229 215 160
837.206459 -1189.838314 1760.120964 134 121 75
837.199306 -1189.835358 1760.143852 101 88 50
837.199306 -1189.835358 1760.143852 101 88 50
837.244606 -1189.826298 1760.069084 212 195 144
837.244606 -1189.826298 1760.069084 212 195 144
843.990612 -1185.233784 1758.230019 104 97 99
837.711430 -1188.901901 1761.650085 54 53 47
844.456482 -1184.802914 1758.354568 131 119 121
836.207676 -1190.515137 1759.893227 189 197 196
837.213039 -1189.831829 1760.105896 208 195 143
837.710857 -1188.900566 1761.634254 234 241 239
837.264824 -1189.808941 1760.052109 221 206 154
837.207794 -1189.830112 1760.115051 190 175 127
837.232876 -1189.819813 1760.082245 160 145 93
837.208462 -1189.826202 1760.111809 136 120 73
837.232018 -1189.816380 1760.086441 219 206 150
837.213993 -1189.822674 1760.107422 225 210 155
837.199116 -1189.823818 1760.135078 124 108 65
837.199116 -1189.823818 1760.135078 124 108 65
837.193871 -1189.820766 1760.151863 202 189 143
837.248135 -1189.807701 1760.070038 139 123 75
837.220764 -1189.817333 1760.100174 206 189 138
837.203217 -1189.819717 1760.127068 218 206 152
837.194729 -1189.818478 1760.145378 118 105 60
837.238598 -1189.807796 1760.079193 147 133 82
837.203407 -1189.812279 1760.127831 199 184 135
837.198830 -1189.811134 1760.137749 213 200 145
837.198830 -1189.811134 1760.137749 213 200 145
837.668991 -1188.682556 1762.193680 188 197 198
837.190533 -1189.808464 1760.154915 215 199 153
837.233448 -1189.797688 1760.087395 154 139 90
836.501789 -1190.289783 1759.919167 138 125 78
837.227154 -1189.799213 1760.092735 199 185 134
837.188816 -1189.804840 1760.157776 141 125 78
837.198830 -1189.802265 1760.137939 213 200 146
837.198830 -1189.802265 1760.137939 213 200 146
837.215996 -1189.799595 1760.107040 149 134 79
837.190914 -1189.803219 1760.149956 138 121 78
837.190151 -1189.798927 1760.154533 200 185 137
837.874889 -1188.548374 1762.049866 59 59 54
837.201023 -1189.798927 1760.129356 208 193 144
846.329594 -1182.500267 1759.960747 89 44 33
837.220860 -1189.791012 1760.099411 213 197 145
837.204170 -1189.789486 1760.128212 209 194 145
837.190628 -1189.789486 1760.152626 215 199 152
837.193489 -1189.786625 1760.138321 151 134 85
846.254635 -1182.432938 1759.980011 131 106 102
837.220097 -1189.772606 1760.113907 213 199 147
837.220097 -1189.772606 1760.113907 213 199 147
837.189865 -1189.782143 1760.150528 230 213 162
837.184143 -1189.780045 1760.168076 145 130 81
837.185574 -1189.779472 1760.160446 217 201 154
837.185574 -1189.779472 1760.160446 217 201 154
837.180710 -1189.779186 1760.171509 205 190 141
837.180710 -1189.779186 1760.171509 205 190 141
837.221336 -1189.765358 1760.117531 142 128 76
837.175846 -1189.778137 1760.181046 217 203 155
837.179852 -1189.776611 1760.167122 147 132 83
837.167549 -1189.774036 1760.197830 116 102 60
845.896244 -1182.705498 1759.767723 181 136 113
837.175369 -1189.770412 1760.180283 214 200 152
837.170982 -1189.765835 1760.186386 133 118 72
837.188816 -1189.762402 1760.156441 216 202 150
837.203598 -1189.753532 1760.137558 141 124 76
837.168694 -1189.762688 1760.189247 201 187 139
837.176132 -1189.761543 1760.174942 213 199 152
837.159061 -1189.759254 1760.212708 118 102 59
837.254620 -1189.648819 1760.203362 157 140 91
837.180805 -1189.753819 1760.162926 200 185 135
837.175560 -1189.753342 1760.175323 205 191 143
837.169456 -1189.752579 1760.186195 214 200 150
837.163258 -1189.751625 1760.200310 132 117 73
837.207794 -1189.730453 1760.144997 216 199 146
837.148476 -1189.744568 1760.236168 110 96 59
837.144184 -1189.738560 1760.243225 179 167 121
837.165833 -1189.738464 1760.192299 134 118 73
837.281895 -1189.075661 1761.632156 70 70 63
837.203026 -1189.714432 1760.157013 139 124 75
837.174797 -1189.726162 1760.181618 213 199 146
837.192440 -1189.716434 1760.163307 157 143 90
837.194252 -1189.708710 1760.168457 242 228 175
837.143612 -1189.724827 1760.236168 195 181 133
837.143612 -1189.724827 1760.236168 195 181 133
837.136364 -1189.723110 1760.252762 198 182 139
837.195301 -1189.700222 1760.172653 148 136 84
837.131882 -1189.717484 1760.266113 165 152 116
837.129498 -1189.714909 1760.274696 126 116 83
837.179661 -1189.704990 1760.187149 200 185 136
837.173367 -1189.700985 1760.194016 213 198 149
837.188053 -1189.690781 1760.186005 147 133 85
837.137413 -1189.706612 1760.246277 132 117 71
837.167740 -1189.698315 1760.200119 207 191 139
837.154579 -1189.703941 1760.214233 198 185 133
837.141705 -1189.708710 1760.230064 135 120 76
837.122822 -1189.697933 1760.297394 129 118 86
837.177181 -1189.690876 1760.194016 156 141 92
837.151241 -1189.703941 1760.218620 149 133 86
837.162018 -1189.695168 1760.212135 151 137 88
836.750031 -1190.120888 1760.009193 216 201 155
837.173080 -1189.689159 1760.197258 224 208 157
837.138748 -1189.699364 1760.244942 216 202 154
837.179852 -1189.678383 1760.204697 162 146 93
837.119675 -1189.693165 1760.295105 100 87 55
837.153530 -1189.692974 1760.219955 148 132 86
837.134743 -1189.696026 1760.251617 211 198 151
837.169456 -1189.678383 1760.209084 151 137 88
837.121677 -1189.689922 1760.283470 103 90 57
837.132168 -1189.691162 1760.254860 138 122 79
837.117004 -1189.685917 1760.299873 150 138 102
837.147141 -1189.687538 1760.228539 151 136 88
837.122059 -1189.690018 1760.270500 125 113 69
837.129211 -1189.685917 1760.262299 136 121 75
837.125397 -1189.682007 1760.279083 183 169 125
837.121487 -1189.682102 1760.287094 197 186 142
837.136269 -1189.679909 1760.250854 205 191 142
837.146664 -1189.677238 1760.232544 131 118 71
837.144089 -1189.675617 1760.239983 146 134 86
837.119389 -1189.678669 1760.282516 122 108 65
837.137032 -1189.676571 1760.247231 145 129 82
837.153721 -1189.669895 1760.227013 148 133 84
837.122536 -1189.678288 1760.273361 134 119 73
837.118053 -1189.674187 1760.284996 207 195 147
837.143707 -1189.665031 1760.242271 202 190 137
837.180233 -1189.640713 1760.220528 238 224 170
837.118149 -1189.668941 1760.283279 126 110 67
837.131882 -1189.668560 1760.254288 221 207 158
837.105274 -1189.656448 1760.338211 141 129 95
837.123203 -1189.664650 1760.278130 140 126 79
837.113762 -1189.665604 1760.296440 189 175 133
837.104225 -1189.662266 1760.322571 156 143 105
837.144279 -1189.655495 1760.245514 127 116 70
837.105083 -1189.651966 1760.334778 145 132 96
837.138939 -1189.655972 1760.250092 219 203 155
837.195301 -1189.524937 1760.341263 209 195 147
837.109852 -1189.650822 1760.302925 121 108 65
837.373924 -1188.733292 1761.877441 66 66 60
837.100697 -1189.644337 1760.330963 177 163 121
837.125587 -1189.644432 1760.270500 139 124 77
837.109852 -1189.644337 1760.302353 217 204 158
837.109852 -1189.644337 1760.302353 217 204 158
837.109852 -1189.644337 1760.302353 217 204 158
837.136650 -1189.631462 1760.264015 208 193 144
837.099171 -1189.634418 1760.330963 190 177 131
837.115669 -1189.636517 1760.288620 199 185 138
837.131977 -1189.627171 1760.271454 228 213 163
837.118816 -1189.632797 1760.282898 141 125 80
837.118816 -1189.632797 1760.282898 141 125 80
837.104225 -1189.632416 1760.314751 175 162 118
837.129879 -1189.623070 1760.275078 146 133 83
837.084579 -1189.621925 1760.372543 158 145 107
837.102699 -1189.630127 1760.309410 130 116 74
837.095451 -1189.625359 1760.335732 171 156 115
837.078094 -1189.609241 1760.406876 139 125 90
837.072372 -1189.596748 1760.441589 124 113 84
837.077904 -1189.609814 1760.397148 144 131 93
837.086868 -1189.618778 1760.356331 160 145 107
837.090302 -1189.617729 1760.348701 211 197 155
846.456146 -1179.802036 1762.235641 82 105 150
837.122917 -1189.610958 1760.286522 139 125 77
837.122917 -1189.610958 1760.286522 139 125 77
836.126137 -1190.589905 1759.804535 47 45 37
837.110329 -1189.608765 1760.302734 140 126 78
837.082195 -1189.601612 1760.373116 120 107 67
846.285915 -1179.941845 1762.017059 109 133 135
837.101173 -1189.603424 1760.321045 225 211 162
837.096119 -1189.602280 1760.330391 196 181 134
834.909439 -1192.052841 1759.605408 203 195 188
837.117577 -1189.589691 1760.302162 223 210 160
836.563206 -1190.247154 1759.942818 218 206 152
837.089348 -1189.590931 1760.347366 132 119 73
836.376858 -1190.293026 1759.953690 179 165 113
837.086391 -1189.589882 1760.351944 193 179 132
837.073231 -1189.581871 1760.397720 162 150 110
837.073231 -1189.581871 1760.397720 162 150 110
834.873676 -1192.099094 1759.605217 203 195 188
837.062740 -1189.583206 1760.416603 113 101 61
837.068462 -1189.571857 1760.427284 146 133 94
837.092209 -1189.585304 1760.342789 203 192 141
837.092209 -1189.585304 1760.342789 203 192 141
837.109566 -1189.577484 1760.316086 157 143 95
837.102222 -1189.576912 1760.333633 198 184 135
837.092686 -1189.579296 1760.341454 129 116 71
845.633602 -1180.418587 1761.864662 66 59 52
837.069035 -1189.577675 1760.395432 115 103 63
837.053967 -1189.561844 1760.458946 107 94 56
837.106228 -1189.566898 1760.328293 209 195 147
837.106228 -1189.566898 1760.328293 209 195 147
837.060165 -1189.564610 1760.433006 202 190 148
837.096500 -1189.568615 1760.340691 138 123 77
837.096500 -1189.568615 1760.340691 138 123 77
837.090206 -1189.568329 1760.353661 126 111 65
837.065792 -1189.567471 1760.406494 116 104 64
837.102127 -1189.561462 1760.336304 219 204 154
837.102127 -1189.561462 1760.336304 219 204 154
837.095642 -1189.562130 1760.346413 198 184 137
837.077332 -1189.564705 1760.377884 198 183 138
836.972618 -1189.621925 1760.291290 152 146 119
837.065506 -1189.558601 1760.406876 181 168 126
837.052441 -1189.549160 1760.453224 161 149 109
837.078381 -1189.558887 1760.373688 135 120 74
838.855457 -1187.664700 1760.594368 108 109 119
844.782162 -1182.240009 1759.314919 36 65 93
837.067699 -1189.557648 1760.397720 199 185 137
837.061310 -1189.556503 1760.412025 126 114 72
837.099361 -1189.543343 1760.352325 189 174 127
837.099361 -1189.543343 1760.352325 189 174 127
837.056732 -1189.551163 1760.429764 122 110 68
837.076855 -1189.553833 1760.378647 200 187 141
837.068462 -1189.554977 1760.392189 136 121 79
837.036133 -1189.531803 1760.510635 88 78 44
837.072468 -1189.553356 1760.382462 148 133 87
837.036419 -1189.526176 1760.517693 158 148 113
837.069130 -1189.546680 1760.398865 201 186 140
837.069130 -1189.546680 1760.398865 201 186 140
845.459557 -1180.340672 1761.831093 65 59 54
839.298820 -1187.412357 1760.085678 65 62 58
837.085152 -1189.537334 1760.371780 140 125 78
837.051296 -1189.541149 1760.438347 114 102 62
837.035370 -1189.524937 1760.507774 157 145 109
836.407661 -1190.385532 1759.860992 148 131 81
837.068176 -1189.542007 1760.396194 123 109 68
837.077808 -1189.541340 1760.373688 202 188 140
846.103096 -1181.475544 1757.733917 134 146 156
837.049675 -1189.529037 1760.450554 118 106 66
837.049675 -1189.529037 1760.450554 118 106 66
837.093830 -1189.521408 1760.367393 153 139 90
837.035465 -1189.518261 1760.494614 113 101 59
842.592907 -1184.700966 1758.381271 134 146 156
837.081528 -1189.524174 1760.377502 135 120 74
837.081528 -1189.524174 1760.377502 135 120 74
837.062073 -1189.527512 1760.409927 129 113 70
837.048817 -1189.522839 1760.443687 172 161 117
837.026215 -1189.498234 1760.543823 134 123 90
843.567848 -1183.157921 1759.489441 60 64 76
837.058544 -1189.518642 1760.423088 127 111 73
845.576668 -1180.020428 1761.712837 113 134 152
837.080956 -1189.508820 1760.384750 207 193 141
837.036610 -1189.507294 1760.483742 166 155 114
837.018967 -1189.492321 1760.554504 124 112 78
837.057972 -1189.511299 1760.422707 198 183 137
837.042427 -1189.506817 1760.463715 112 97 57
837.042427 -1189.506817 1760.463715 112 97 57
837.067795 -1189.506435 1760.408020 148 133 85
843.938732 -1182.753468 1759.386444 47 57 69
837.054539 -1189.508533 1760.431290 211 198 154
837.018204 -1189.493561 1760.543060 154 142 106
845.214367 -1180.338097 1761.706924 79 99 140
837.060070 -1189.508438 1760.416412 144 129 83
837.033081 -1189.507866 1760.476685 113 103 63
837.052536 -1189.503288 1760.434151 131 118 72
837.059784 -1189.499950 1760.420799 236 223 172
837.070560 -1189.497089 1760.401917 141 127 79
837.005901 -1189.461422 1760.612679 113 102 72
837.036896 -1189.495945 1760.466957 134 118 74
837.025356 -1189.484406 1760.513115 184 173 124
837.013721 -1189.467621 1760.571098 135 123 89
837.051773 -1189.487743 1760.441017 131 117 72
837.025547 -1189.490604 1760.492325 114 104 61
837.032032 -1189.486217 1760.486221 102 90 50
843.924809 -1182.629395 1759.395981 134 144 151
837.027073 -1189.478302 1760.508919 102 87 50
837.018681 -1189.476204 1760.528374 103 88 55
844.834900 -1180.599594 1761.570358 118 134 156
837.031078 -1189.478779 1760.490417 183 170 124
837.035847 -1189.481354 1760.472298 121 105 63
837.213230 -1189.254951 1760.492325 210 218 217
837.213230 -1189.254951 1760.492325 210 218 217
837.007809 -1189.457798 1760.582352 159 147 110
837.006855 -1189.465809 1760.567093 100 87 49
837.023830 -1189.473820 1760.512161 164 149 108
836.999130 -1189.442635 1760.631180 136 125 95
837.021923 -1189.470863 1760.517502 112 99 60
837.021923 -1189.470863 1760.517502 112 99 60
837.060356 -1189.471054 1760.429382 217 203 154
837.035179 -1189.476585 1760.464096 205 191 143
837.013340 -1189.459991 1760.544777 110 98 58
837.060642 -1189.456558 1760.438347 208 196 148
837.057114 -1189.456272 1760.443878 144 130 88
837.011242 -1189.451790 1760.554504 109 93 56
837.026024 -1189.461517 1760.501862 196 184 138
837.018490 -1189.457226 1760.523415 175 162 119
837.020969 -1189.459515 1760.512161 113 101 60
837.039852 -1189.456844 1760.470009 210 195 146
837.045002 -1189.453506 1760.455132 185 170 125
838.317299 -1188.297749 1759.947968 25 28 26
837.009811 -1189.439392 1760.550117 190 177 133
837.022781 -1189.443398 1760.511208 125 111 69
836.991882 -1189.428329 1760.609436 101 88 51
837.007141 -1189.437866 1760.554504 119 105 64
837.007141 -1189.437866 1760.554504 119 105 64
836.987972 -1189.426136 1760.619926 94 83 45
837.029648 -1189.436817 1760.495949 199 185 137
836.999226 -1189.428711 1760.578537 200 184 142
837.027645 -1189.433384 1760.500717 123 111 63
837.024212 -1189.431858 1760.507965 140 127 81
