ply
            format ascii 1.0
            element vertex 57955
            property float x
            property float y
            property float z
            property uchar blue
            property uchar green
            property uchar red
            end_header
54.250860 -422.068405 1605.947685 21 18 14
71.469223 -395.298910 1576.351166 12 9 5
181.720030 -199.158645 1400.863743 7 4 1
138.690472 -283.655882 1467.429924 7 4 1
104.685688 -345.899940 1526.300716 11 6 3
104.685688 -345.899940 1526.300716 11 6 3
190.894008 -186.586332 1392.480087 7 4 1
81.923908 -387.339830 1569.346046 14 11 7
139.213812 -289.596319 1471.366119 8 5 2
173.385942 -225.154471 1420.057392 6 3 1
86.069077 -382.167602 1563.266182 12 9 5
103.563678 -358.185792 1539.581203 11 7 3
118.387544 -332.281017 1515.222645 10 5 2
199.224842 -181.360900 1389.255619 7 4 1
189.587867 -201.126289 1402.824783 5 3 2
110.038304 -348.986650 1531.694698 8 4 1
181.030691 -222.267556 1417.994976 7 4 1
-14.321199 -552.910185 1764.886093 74 71 67
179.205072 -227.718830 1423.410320 6 3 1
166.118479 -255.399179 1444.579601 6 3 0
78.097630 -412.180996 1595.912552 22 19 15
92.057669 -390.130854 1571.976852 49 46 42
110.712314 -358.400083 1539.591980 11 7 3
157.274234 -278.309751 1466.727924 7 4 1
119.560790 -347.531629 1529.551220 14 10 5
47.069141 -469.397831 1661.566353 66 63 59
79.393899 -416.530609 1603.266335 21 18 14
174.607635 -256.386137 1445.658684 6 3 1
134.427786 -330.588436 1512.600422 7 3 0
86.477953 -414.017916 1600.210953 18 15 11
200.291800 -209.911156 1409.605312 6 3 1
117.608130 -363.818789 1546.540260 16 12 7
169.531155 -273.749375 1459.762192 6 3 0
164.037120 -283.541393 1470.188522 7 2 0
85.367608 -422.520113 1610.132217 51 48 44
62.642837 -460.559845 1653.129578 24 21 17
183.661628 -247.424293 1439.990807 13 8 6
98.582304 -404.987907 1589.601994 13 10 7
115.788102 -377.494955 1559.282684 12 8 3
171.450019 -277.878952 1463.358212 12 7 5
134.922922 -345.616126 1526.692486 12 8 5
48.814371 -491.041899 1687.925339 69 66 62
189.380968 -244.118237 1437.692833 7 2 1
62.992036 -470.282459 1661.661911 17 12 9
62.992036 -470.282459 1661.661911 17 12 9
56.793863 -481.245565 1676.127052 22 17 14
170.634007 -283.851171 1470.681286 8 4 2
60.895997 -476.177025 1669.548035 71 67 63
68.847752 -464.175272 1655.877876 65 60 57
68.847752 -464.175272 1655.877876 65 60 57
126.841378 -368.568230 1552.498055 15 11 6
145.386624 -337.006998 1520.693970 11 7 3
143.751061 -343.910933 1528.816891 10 6 2
213.098001 -212.218118 1416.699600 6 3 1
188.236499 -263.038588 1455.130577 12 7 4
88.018012 -443.620682 1634.229469 23 18 15
174.286616 -292.522025 1479.135609 6 2 0
186.792922 -269.115043 1459.118652 7 2 1
52.441102 -507.234907 1706.555557 72 69 65
185.683310 -275.136852 1464.217663 8 3 2
163.356996 -317.990565 1503.544998 8 4 1
137.184238 -367.936707 1551.852703 14 10 5
90.626389 -448.838854 1639.940453 55 52 48
142.341983 -359.444165 1544.530296 15 11 7
152.278817 -343.104911 1528.344536 9 5 2
219.989157 -214.191175 1415.584755 7 2 1
165.697277 -324.733567 1510.441589 15 11 7
224.987626 -210.093594 1413.769245 8 4 2
142.766082 -369.750023 1555.778599 13 9 4
221.445584 -222.378635 1422.767258 10 6 2
91.171420 -464.572906 1659.101486 30 25 22
113.764822 -427.264595 1615.989685 22 19 15
113.764822 -427.264595 1615.989685 22 19 15
134.873736 -390.209293 1576.114273 20 16 11
118.424368 -419.633818 1607.884407 22 17 14
103.955054 -445.131969 1636.371040 22 19 15
166.746044 -335.345507 1520.685863 12 8 4
166.746044 -335.345507 1520.685863 12 8 4
127.203894 -407.817698 1594.681549 19 14 11
91.853940 -469.300938 1663.529587 24 19 16
94.792455 -464.769268 1659.072304 89 84 81
194.910860 -285.279703 1473.165703 8 4 1
150.468624 -369.243598 1552.362633 17 13 9
120.627642 -424.243927 1611.941719 18 13 10
136.516654 -396.246338 1582.332802 94 90 85
104.531181 -452.507734 1644.654655 25 21 16
204.577732 -268.707371 1461.226273 21 17 13
198.719716 -281.339884 1471.834469 9 5 1
96.528530 -469.048357 1662.061310 80 75 72
133.793509 -404.809475 1592.356586 21 16 13
142.642975 -389.371562 1575.129890 18 14 9
191.136646 -300.207090 1488.982868 7 3 0
110.303569 -447.949839 1639.713669 22 18 13
201.401877 -281.697011 1472.751427 82 78 73
159.780264 -362.687707 1547.936916 20 16 11
185.798192 -315.079117 1501.316166 8 4 1
210.600114 -267.884421 1460.197830 10 6 3
108.958542 -456.297970 1649.794006 26 22 17
184.318972 -322.003222 1506.966782 12 8 4
169.232881 -351.198459 1535.254288 11 7 3
117.890728 -444.051790 1635.423088 18 14 9
232.441854 -229.225922 1430.852795 8 3 1
232.441854 -229.225922 1430.852795 8 3 1
102.314937 -473.270273 1670.762825 65 60 57
102.314937 -473.270273 1670.762825 65 60 57
139.570248 -410.119867 1596.955872 19 15 11
82.574064 -510.677862 1715.764046 28 25 21
134.560025 -420.980310 1611.106491 18 14 10
161.947072 -371.980357 1558.397675 16 12 7
243.430042 -210.905385 1418.490601 9 4 2
154.294872 -386.198068 1573.832035 20 16 11
129.694700 -431.392384 1620.971680 21 17 12
201.026535 -299.346685 1487.487698 7 3 1
227.184963 -247.338033 1444.724178 9 5 1
248.887944 -204.019976 1412.742424 7 2 0
86.622214 -510.300064 1713.360596 79 76 72
236.706567 -233.061337 1434.796524 9 5 2
195.965469 -316.364360 1504.448223 11 7 4
136.940491 -427.104998 1617.527771 18 14 9
203.405619 -305.017829 1494.981003 7 3 0
230.881667 -252.072620 1448.027325 9 5 1
75.522196 -540.408993 1750.481224 66 63 59
122.890866 -459.586859 1652.096748 23 19 14
156.483698 -398.429608 1586.620617 21 17 12
202.222276 -313.162231 1502.493858 14 10 5
174.859250 -366.538072 1552.611351 23 19 14
256.691051 -203.802133 1412.468624 9 4 2
170.167232 -379.209352 1565.996456 11 7 3
273.070383 -170.977998 1394.457245 12 9 6
234.356689 -256.548762 1452.843857 8 4 1
227.923226 -271.939754 1465.277672 10 6 3
203.858352 -320.517659 1507.938385 15 10 7
130.133176 -458.313274 1650.905228 23 19 14
126.771545 -465.318060 1662.562943 83 79 74
126.771545 -465.318060 1662.562943 83 79 74
272.519517 -179.089761 1398.475647 13 8 5
125.474513 -469.665432 1667.591476 35 30 27
117.736614 -483.858681 1685.070992 22 17 14
158.980274 -412.490892 1601.499939 17 13 9
158.980274 -412.490892 1601.499939 17 13 9
186.181164 -363.818431 1550.810719 14 10 6
173.974252 -387.117934 1574.771023 10 6 2
128.656483 -469.555664 1667.101288 80 76 71
159.192717 -416.173220 1605.423164 22 18 13
179.001188 -379.019284 1567.598915 23 19 14
280.355191 -169.667625 1395.983124 11 6 5
240.178704 -258.980536 1456.164551 18 14 9
240.178704 -258.980536 1456.164551 18 14 9
127.979648 -473.168755 1671.305466 27 22 19
220.958996 -301.374078 1492.042351 12 8 4
169.143832 -401.748610 1589.418983 15 11 7
125.643814 -480.326319 1680.983734 24 19 16
142.108238 -451.445246 1647.074509 27 23 18
131.933057 -469.627285 1668.383026 25 21 16
187.702417 -368.124008 1554.970932 11 7 3
145.376825 -445.632887 1641.158867 33 29 24
92.228860 -542.776299 1755.051231 83 78 75
159.155023 -423.941469 1614.416695 23 19 14
154.230571 -434.411907 1627.076530 31 27 22
154.230571 -434.411907 1627.076530 31 27 22
141.912961 -458.879757 1655.021858 34 30 25
95.870185 -543.863487 1755.059052 34 29 26
95.870185 -543.863487 1755.059052 34 29 26
145.506465 -455.239105 1651.098824 22 18 13
149.912453 -449.078369 1642.411232 23 19 14
98.921061 -540.291643 1753.898621 81 76 73
115.966797 -510.742569 1717.501259 33 28 25
122.578931 -500.457478 1703.837204 91 86 83
281.688619 -187.607932 1405.362988 10 5 3
199.723196 -359.720874 1547.165012 20 16 11
254.759502 -248.058319 1448.739433 9 4 2
254.759502 -248.058319 1448.739433 9 4 2
156.548059 -443.310595 1636.579323 23 19 14
102.631497 -540.240335 1753.347778 27 22 19
163.934839 -431.907415 1624.401665 82 78 73
126.521778 -500.768709 1705.052567 31 26 23
136.139154 -483.465099 1685.786819 31 26 23
223.796606 -319.547987 1509.838963 13 9 4
167.015338 -429.827785 1620.692444 29 25 20
190.424299 -386.843538 1576.224136 25 21 16
188.335013 -391.635585 1579.703426 14 10 6
105.708718 -544.307566 1756.277275 41 36 33
140.391672 -482.742500 1683.898163 79 74 71
140.391672 -482.742500 1683.898163 79 74 71
113.971448 -531.165171 1741.077995 31 26 23
131.969774 -499.511814 1703.512383 80 75 72
184.273326 -404.303932 1594.066811 21 17 12
184.273326 -404.303932 1594.066811 21 17 12
255.064416 -263.028526 1462.101650 13 8 6
150.039208 -468.819523 1666.967583 28 24 19
150.039208 -468.819523 1666.967583 28 24 19
170.086586 -432.661724 1625.596809 17 13 8
159.403598 -452.518320 1648.159981 23 19 14
163.721001 -447.387838 1641.601181 26 22 17
136.144948 -498.789930 1700.801086 29 24 21
123.826897 -521.268272 1728.969002 36 31 28
172.785032 -432.512331 1626.029587 85 81 76
172.785032 -432.512331 1626.029587 85 81 76
178.215754 -422.554922 1614.420700 26 22 17
283.838224 -208.246899 1421.451092 17 12 9
187.656856 -407.748461 1598.179531 23 19 14
163.678968 -452.945709 1648.731613 99 95 90
128.390658 -517.418432 1727.804756 29 24 21
161.153972 -460.779524 1657.345581 25 21 16
127.891099 -521.635675 1730.385590 86 81 78
127.891099 -521.635675 1730.385590 86 81 78
167.001188 -451.512194 1648.559189 28 24 19
136.154079 -509.183455 1713.807869 31 26 23
284.603739 -214.086175 1426.442051 9 4 3
245.971417 -297.761893 1493.665409 21 17 12
85.200179 -601.196432 1832.818413 84 79 76
295.863485 -194.258106 1412.187481 12 7 4
136.040688 -515.343142 1723.917961 32 27 24
160.195196 -471.842813 1671.741676 109 105 100
164.775896 -463.970041 1663.147926 34 30 25
139.016259 -512.038374 1719.669533 76 71 68
182.308984 -432.055092 1625.216484 25 21 16
236.345315 -325.637221 1517.035770 16 12 8
186.035764 -425.422668 1617.293549 28 24 19
132.161880 -525.053024 1735.128403 71 66 63
132.161880 -525.053024 1735.128403 71 66 63
287.519979 -217.932987 1429.812241 8 3 1
116.399515 -555.712414 1772.939491 74 69 66
181.847358 -435.644388 1630.115128 20 16 12
230.900097 -341.860342 1531.551266 10 6 2
193.723106 -415.339613 1606.841278 28 24 19
121.379447 -549.200106 1766.009331 39 34 31
142.559409 -511.406898 1718.599510 35 30 27
238.644552 -329.685044 1522.900391 14 10 6
128.020930 -542.078018 1756.245422 34 29 26
169.296360 -466.136932 1664.832306 28 24 19
139.575648 -522.066975 1732.743073 86 81 78
139.575648 -522.066975 1732.743073 86 81 78
194.084990 -421.978712 1613.017082 18 14 10
178.761125 -450.330830 1647.491074 69 65 60
160.464716 -485.313702 1687.395668 26 22 17
204.550385 -401.342154 1593.765354 22 18 13
304.189587 -191.263139 1412.458420 15 10 7
310.439348 -176.979136 1404.856110 17 14 10
282.610488 -241.755652 1447.441864 11 7 3
192.347443 -427.302790 1622.672272 23 19 14
200.731754 -412.874126 1606.053925 24 20 15
147.760296 -514.029026 1722.452354 32 27 24
189.928186 -435.053921 1630.522346 24 20 15
209.558296 -396.936250 1589.492989 20 16 11
158.630335 -514.871264 1628.647041 85 81 76
205.774879 -408.688354 1600.655937 23 19 14
298.253512 -213.666844 1428.648186 19 14 12
133.879161 -545.112371 1760.013771 73 68 65
133.879161 -545.112371 1760.013771 73 68 65
182.353354 -456.713820 1654.691124 35 31 26
212.992382 -398.193216 1590.905190 112 108 103
212.992382 -398.193216 1590.905190 112 108 103
158.223224 -504.126549 1711.722374 78 73 70
190.838993 -444.091415 1639.238739 96 92 87
192.105150 -440.013981 1639.616776 30 26 21
192.105150 -440.013981 1639.616776 30 26 21
105.300844 -604.741478 1838.456917 40 36 31
304.966998 -209.899926 1426.047421 13 9 4
192.696714 -445.282173 1642.948914 20 16 12
121.690881 -578.890896 1804.819489 85 81 76
226.963830 -380.751419 1572.944832 35 29 24
320.395017 -175.609195 1407.581425 79 76 74
109.266770 -603.677797 1837.477493 86 82 77
211.527705 -411.864471 1606.098175 91 87 82
211.527705 -411.864471 1606.098175 91 87 82
243.890214 -346.900606 1539.598274 18 14 9
270.327234 -291.057086 1489.613628 14 10 6
172.031593 -488.489389 1692.931747 73 69 64
189.457357 -456.645250 1654.036140 28 24 19
191.427541 -452.641058 1650.467491 72 68 63
191.427541 -452.641058 1650.467491 72 68 63
113.145208 -600.825405 1832.783699 49 45 40
125.977802 -577.866554 1801.807785 43 39 34
294.186282 -246.210647 1452.048302 16 11 8
201.886296 -438.499832 1635.174942 23 19 14
156.257963 -526.371098 1736.773109 91 87 82
324.030328 -175.001895 1409.199715 19 15 14
233.012652 -376.595974 1569.868851 24 18 13
215.114307 -412.549686 1608.411407 23 19 14
166.968894 -507.134724 1715.415001 24 20 15
220.949054 -403.580093 1596.749115 30 26 21
218.488812 -408.778572 1603.494263 115 111 106
138.848984 -562.394667 1783.755112 35 31 26
159.636736 -525.112963 1735.535240 38 34 29
126.757050 -587.106371 1817.172813 81 77 72
212.509894 -427.394724 1622.331047 14 8 4
230.531836 -391.059184 1584.924889 26 20 15
230.531836 -391.059184 1584.924889 26 20 15
305.588651 -230.519223 1442.258930 123 119 114
227.604818 -397.945023 1591.899681 26 21 14
164.749396 -520.979595 1732.069016 42 38 33
215.542316 -424.354219 1619.990540 81 75 68
210.928273 -435.017633 1630.236244 16 12 7
218.231392 -421.032953 1617.833328 30 24 17
198.441064 -462.720394 1662.269783 88 84 79
309.975910 -229.008198 1440.216446 22 18 13
231.424475 -400.149632 1595.397949 26 20 13
209.928012 -443.183756 1642.411423 28 23 18
155.627847 -548.506021 1768.595695 45 41 36
202.611351 -460.040331 1660.199738 34 30 25
202.611351 -460.040331 1660.199738 34 30 25
250.171661 -364.171267 1560.675430 22 16 9
206.634021 -454.794884 1655.326462 31 27 22
238.973713 -389.888501 1586.467457 29 23 16
163.884950 -539.033937 1755.128288 40 36 31
137.967074 -588.862658 1819.735527 80 76 71
121.538448 -620.893717 1863.759804 82 78 73
313.823867 -233.027530 1446.438789 23 17 12
221.495914 -432.921028 1629.944420 34 28 21
183.890212 -508.080196 1717.371368 28 24 19
183.890212 -508.080196 1717.371368 28 24 19
270.421576 -332.859135 1528.329182 14 8 4
326.300788 -207.899404 1426.931858 14 9 6
169.652772 -536.340284 1752.722168 42 38 33
320.954800 -222.533679 1438.077164 15 10 8
232.986522 -413.604927 1610.337639 37 31 24
324.757266 -216.327333 1435.610390 16 11 8
198.536825 -488.342667 1693.502808 31 25 18
191.479897 -501.672697 1711.820602 33 29 24
326.970196 -220.546627 1437.627220 12 7 5
264.483953 -359.534907 1555.937481 26 22 17
184.111142 -526.487732 1741.436577 34 30 25
229.577851 -438.790560 1636.690331 23 17 10
173.997676 -548.675728 1769.511414 97 93 88
222.452736 -453.636312 1655.220795 29 23 16
194.610035 -509.929276 1720.706177 43 39 34
199.903822 -500.898218 1709.949112 28 24 19
219.810963 -461.961031 1666.160965 32 26 19
259.929061 -380.210876 1576.671219 30 24 17
244.026327 -414.625406 1613.228035 70 64 57
195.457983 -513.072920 1725.683403 94 90 85
184.702170 -534.641743 1752.024269 97 93 88
346.246529 -186.657977 1420.062923 18 15 11
231.557274 -443.871260 1643.936920 31 25 18
342.666054 -200.157976 1425.380611 23 18 15
198.596287 -512.513828 1726.968193 36 32 27
208.404589 -498.458242 1706.872749 41 35 28
229.347682 -456.518173 1659.213829 103 97 90
177.622378 -559.763193 1783.340454 107 103 98
198.004234 -519.577932 1735.107613 37 33 28
243.454313 -427.503204 1629.132271 32 26 19
218.959236 -479.344749 1684.816742 31 25 18
222.164989 -473.845530 1680.461502 44 38 31
276.965117 -360.462523 1558.614063 31 25 20
206.615949 -507.281590 1718.519402 36 31 26
244.830537 -431.747389 1634.658241 32 26 19
165.540957 -591.518354 1826.031303 90 86 81
240.161371 -446.237373 1647.441483 37 31 24
208.145857 -514.799595 1727.270508 40 34 29
202.002645 -528.635740 1744.201851 38 34 29
163.518035 -605.475140 1845.419884 89 85 80
158.805001 -618.076229 1860.395432 90 86 81
225.612926 -486.705780 1694.787788 38 32 25
287.474418 -355.864763 1555.100632 29 23 18
213.842106 -511.359930 1724.194908 40 36 31
308.114433 -311.298132 1512.121105 26 20 15
200.977850 -542.407703 1762.447548 41 37 32
237.996745 -468.967247 1676.134491 36 30 23
254.396892 -435.106182 1638.471222 93 87 80
365.642238 -190.320265 1423.248768 30 25 22
187.488222 -581.644773 1812.188148 90 86 81
187.488222 -581.644773 1812.188148 90 86 81
207.836080 -540.352869 1761.735725 54 48 43
214.858389 -533.391523 1753.503799 39 33 28
190.709972 -583.019161 1814.636421 46 42 37
190.709972 -583.019161 1814.636421 46 42 37
248.342562 -467.617369 1672.346878 37 31 24
232.414103 -500.986910 1715.184402 42 36 29
172.660303 -622.841978 1870.484543 52 48 43
218.306613 -532.566500 1752.722359 101 95 90
356.264281 -229.858065 1448.184967 22 14 13
206.771660 -558.269167 1784.638596 82 76 71
238.501692 -493.610191 1702.741432 40 34 27
217.512608 -537.162542 1756.928635 39 33 28
240.863061 -488.686419 1698.745346 39 33 26
233.831000 -504.536772 1718.475533 43 37 30
238.009143 -496.303749 1708.494568 45 39 32
243.774009 -485.122156 1695.021248 31 25 18
345.347476 -259.270859 1473.342705 29 23 18
236.659861 -501.099300 1715.413284 100 94 87
278.816819 -411.952686 1613.786125 37 31 24
249.422503 -477.322149 1685.821915 32 26 19
354.428267 -243.689537 1462.040234 25 19 14
249.040556 -481.831646 1690.486526 27 21 14
241.648722 -500.255775 1712.654114 36 30 23
377.214646 -190.407181 1428.339386 16 12 11
215.616369 -555.855656 1782.709122 54 48 43
225.266790 -536.903238 1759.301186 55 49 44
364.825797 -232.766175 1453.988838 31 24 21
366.203141 -229.666972 1451.708317 27 20 17
381.588149 -193.640590 1431.369305 25 21 18
380.123043 -198.414707 1433.981514 27 22 19
221.148062 -558.952713 1787.459564 42 36 31
255.731249 -488.515854 1699.939156 33 27 20
209.180784 -587.628555 1823.889160 43 39 34
248.607635 -506.417418 1720.578194 110 104 97
368.116093 -234.660220 1455.975246 30 23 21
254.065514 -496.860743 1710.352707 39 33 26
255.931759 -493.039656 1705.914879 150 144 137
252.725983 -502.583218 1716.655350 138 132 125
212.864780 -586.676264 1823.834991 114 109 104
282.934833 -438.979721 1644.363022 33 27 20
236.602616 -539.973974 1763.266754 57 51 46
250.303531 -514.131641 1731.673050 51 45 38
219.743609 -578.373957 1816.643524 122 116 111
219.743609 -578.373957 1816.643524 122 116 111
264.140534 -486.431313 1698.848724 40 34 27
258.406067 -499.451590 1714.607048 36 30 23
257.152510 -502.633762 1717.358589 58 52 45
241.983247 -535.287237 1758.199883 32 26 21
207.646656 -607.431650 1852.367783 104 98 93
274.016452 -468.467236 1677.944946 47 41 34
226.446295 -570.975065 1804.454041 48 42 37
235.506225 -552.530766 1780.949211 48 42 37
230.009174 -571.060658 1803.979111 126 120 115
393.598533 -197.521150 1435.908127 78 73 70
390.020347 -207.020545 1441.862869 28 22 24
266.380858 -497.767258 1713.420105 48 42 35
254.359126 -525.390863 1748.574448 50 44 39
222.752094 -593.372583 1834.729576 118 112 107
395.904088 -195.211041 1435.484409 28 26 22
218.568563 -607.003641 1853.660965 103 97 92
394.526529 -202.760887 1441.465950 95 90 87
255.328083 -531.310797 1754.327965 43 37 32
392.272711 -211.987090 1446.168327 30 25 24
388.647151 -223.243999 1450.228786 19 12 12
289.759135 -458.059835 1668.496704 42 36 29
353.553271 -312.992454 1522.461891 30 24 19
260.156059 -527.385044 1749.652863 63 57 52
260.156059 -527.385044 1749.652863 63 57 52
392.055750 -218.641829 1448.902321 19 15 12
263.833117 -521.386719 1742.465019 29 23 17
253.461719 -545.251179 1773.724174 42 36 31
283.580351 -482.950592 1697.629356 47 41 34
219.607186 -623.511744 1876.647758 99 93 88
402.105999 -200.002575 1441.798401 82 79 75
272.574782 -509.292555 1729.590034 45 39 32
245.360088 -573.890734 1810.752869 103 97 92
402.003288 -206.479955 1445.053101 24 19 16
400.396252 -212.606955 1447.531033 105 100 97
302.843761 -448.459291 1659.696960 116 110 103
401.173687 -215.100408 1450.315094 21 16 13
258.277369 -554.522800 1786.191177 96 90 85
250.199366 -572.776985 1807.326317 60 54 49
400.892019 -218.008924 1452.101326 135 131 127
221.730947 -638.067293 1896.840668 63 57 52
280.695677 -509.998751 1730.640221 62 56 49
261.207938 -555.922651 1787.182045 48 42 37
403.554630 -218.678498 1452.037239 27 22 19
406.625509 -209.686947 1450.249481 24 19 16
267.837119 -542.875147 1771.901131 41 35 30
278.423309 -520.007992 1743.494987 51 45 38
270.961571 -539.577246 1767.443275 145 139 134
403.306484 -224.537539 1455.880642 41 34 33
266.839600 -549.927473 1780.130768 50 44 39
254.440117 -582.078123 1822.113037 104 98 93
254.440117 -582.078123 1822.113037 104 98 93
274.923968 -536.539459 1764.530563 57 51 46
413.322544 -203.250742 1445.838261 30 28 26
270.004630 -549.383497 1780.137825 136 130 125
274.010873 -541.186666 1772.202873 62 56 51
286.488867 -514.614916 1736.933517 60 54 47
308.093786 -467.256975 1681.822586 42 36 29
275.068212 -545.374584 1774.797440 48 42 37
277.392077 -540.625477 1770.864677 145 139 134
302.439618 -484.565735 1700.802803 29 23 16
256.302142 -588.336611 1832.696724 61 55 50
415.912437 -208.840466 1449.716473 30 25 22
256.018567 -597.650671 1843.998909 56 50 45
411.043930 -232.840252 1462.637520 38 32 27
271.688628 -570.256615 1808.973885 106 100 95
339.234924 -426.471519 1638.581848 48 40 33
295.574021 -529.036713 1757.921219 47 39 32
415.086985 -243.856406 1472.591305 156 150 144
332.862496 -451.190758 1665.568924 155 147 140
342.649746 -429.412746 1644.786263 50 42 35
284.143114 -569.968224 1810.348892 64 58 53
297.070217 -548.148203 1781.952286 53 47 42
302.381635 -536.259413 1767.464447 48 40 33
300.042725 -546.711731 1781.055450 132 126 119
302.151203 -542.394543 1775.450706 47 41 34
302.151203 -542.394543 1775.450706 47 41 34
426.764250 -233.578467 1467.677307 32 27 24
430.564547 -226.480770 1464.510250 33 28 25
338.473725 -461.168289 1681.313324 46 38 31
256.209373 -655.207062 1929.295731 114 106 99
341.701245 -456.259584 1674.127007 171 163 156
433.181524 -223.590064 1463.847733 43 38 35
274.112177 -619.138002 1878.584099 73 67 60
346.674013 -449.436617 1666.173172 193 185 178
429.869604 -238.433814 1474.241924 191 186 176
284.035563 -602.891350 1855.404854 63 55 48
278.106022 -617.395449 1876.998711 142 134 127
287.356591 -596.390867 1848.335075 153 145 138
434.067106 -231.150532 1469.108295 160 154 148
437.524033 -230.419302 1468.248463 37 29 28
432.045269 -245.190215 1479.412079 171 165 160
435.968924 -235.427737 1473.233509 150 144 137
442.037153 -221.665549 1467.302036 41 38 34
307.101893 -564.161634 1806.591415 65 57 50
310.594511 -563.017702 1807.789230 145 137 130
314.135718 -557.649279 1797.787857 138 130 123
450.604057 -230.670452 1472.492218 36 31 30
309.825206 -596.854830 1853.773117 65 57 50
333.207798 -549.787045 1790.701675 153 144 135
318.204379 -591.038561 1847.131157 124 116 109
321.958208 -589.515400 1844.028664 82 74 67
451.461029 -258.738017 1494.156265 191 183 175
458.787775 -240.059423 1482.306004 34 29 28
425.023079 -340.502906 1563.430309 51 43 36
449.795389 -281.866980 1511.703014 205 197 190
457.006788 -262.860060 1498.168278 46 37 34
339.660239 -580.824804 1834.476471 178 168 161
433.870220 -335.791373 1557.896996 190 182 175
461.015034 -281.758952 1515.528011 63 54 51
469.279718 -264.732480 1505.143833 49 39 39
473.306942 -263.100004 1506.194878 173 163 161
341.341162 -634.004974 1915.746880 88 78 71
482.542515 -248.776603 1496.147156 57 53 52
473.593473 -285.266495 1523.407841 91 82 78
478.477669 -275.867224 1517.653847 197 186 182
485.890579 -256.197643 1503.371811 61 55 55
468.291283 -309.269452 1542.045021 230 220 211
473.296833 -297.514534 1534.037209 244 236 230
473.011923 -308.596611 1543.285751 103 91 85
475.033712 -302.588511 1540.784836 190 178 172
455.660582 -358.952975 1588.872528 242 231 223
469.802618 -318.705440 1551.534939 224 212 206
485.455370 -282.864141 1523.663616 79 67 63
467.489195 -335.267043 1567.347813 214 203 196
495.807266 -257.915545 1509.083557 69 64 61
455.161524 -382.815671 1613.888741 230 220 212
478.957319 -316.543603 1552.434158 234 222 216
469.630718 -344.451976 1577.293682 218 207 199
498.545218 -259.772635 1513.321495 50 45 42
469.183207 -350.974345 1583.100414 230 220 212
498.187399 -267.662859 1517.106819 79 73 68
480.452824 -323.307228 1557.950592 241 232 224
461.809731 -381.315804 1613.362885 228 217 209
482.149887 -329.343057 1564.484596 243 233 223
500.597620 -277.170086 1522.350407 89 77 78
472.037172 -361.059809 1595.464039 89 78 70
487.942648 -320.295668 1556.876659 243 234 226
486.283636 -325.282478 1563.175201 250 242 234
493.678665 -304.147005 1544.971561 234 222 216
475.029707 -360.338831 1593.982601 213 202 194
501.479769 -282.395816 1529.196644 79 67 64
507.106876 -273.943925 1526.319408 60 53 50
486.014986 -346.215177 1583.036995 96 85 77
502.967596 -296.467423 1541.969299 88 76 70
508.105183 -281.967092 1532.803440 77 66 62
508.105183 -281.967092 1532.803440 77 66 62
506.715918 -286.066771 1536.369705 85 73 71
436.918879 -493.517637 1741.153717 96 86 76
502.711773 -300.108886 1545.266914 241 229 223
506.297684 -289.876676 1538.793278 201 191 184
512.930775 -270.893574 1525.539589 66 61 62
495.501184 -325.008225 1566.469479 253 248 240
494.032478 -331.364870 1570.675564 247 241 233
510.858297 -283.405185 1536.815453 236 227 221
477.916574 -383.562446 1620.998573 103 92 84
511.265373 -287.775588 1538.841248 223 213 206
499.765158 -323.675752 1563.208866 95 83 79
511.005211 -290.350628 1541.431046 100 90 83
500.605011 -326.160908 1567.988300 254 247 241
500.644732 -330.829644 1573.134899 254 250 241
574.088860 -137.295866 2016.070366 185 197 201
427.513218 -559.940767 1828.394890 118 106 96
514.031506 -306.547832 1556.471348 96 84 78
489.110327 -386.326194 1629.638290 241 232 224
518.870306 -296.639848 1549.254608 74 63 59
515.994215 -309.783340 1557.040215 215 203 197
507.293415 -336.687374 1581.390667 248 240 232
491.141891 -391.675544 1634.152222 254 247 239
522.867155 -297.281766 1553.466892 84 74 69
483.063173 -421.756220 1664.567757 243 234 226
460.954237 -496.822262 1752.796173 112 100 90
453.129578 -521.438408 1781.390190 126 114 104
494.600058 -393.857312 1637.435150 253 250 241
522.317219 -308.928251 1556.638718 239 227 221
523.284292 -305.976343 1557.944489 102 90 84
484.385443 -433.573532 1679.578400 108 96 86
459.757566 -513.266611 1774.054909 225 213 203
508.402729 -369.562650 1616.054344 251 247 239
500.176907 -395.764828 1643.591690 123 112 104
463.401222 -511.791277 1770.108795 105 93 83
464.060545 -514.907408 1775.870895 236 230 221
466.045427 -509.659195 1768.885803 227 216 206
474.369144 -488.300800 1742.367363 251 247 237
530.294228 -312.407923 1567.429924 84 72 66
527.326298 -323.706269 1576.661873 122 110 104
500.794363 -409.709215 1656.310844 85 73 65
529.964018 -317.841411 1573.140812 92 80 74
504.799652 -398.008800 1645.400238 114 103 95
498.714113 -416.905928 1660.743332 251 243 235
482.691002 -471.023464 1724.771881 106 96 86
534.686232 -306.563568 1567.240238 118 106 102
505.584478 -400.185251 1646.651649 113 102 94
504.496241 -405.542994 1653.651619 98 87 79
498.893499 -423.991346 1671.511269 241 232 222
501.611757 -415.236092 1662.201309 102 90 82
501.611757 -415.236092 1662.201309 102 90 82
503.370571 -413.083839 1661.753845 240 233 225
488.136148 -464.355612 1719.477844 243 237 227
493.607903 -450.311327 1699.776268 133 121 111
535.442352 -317.029023 1574.448204 99 87 82
473.531818 -516.314411 1780.174828 142 130 120
489.356518 -466.528702 1722.109604 116 104 94
535.954809 -319.385481 1577.343178 242 231 225
494.511843 -453.289223 1708.124733 253 250 241
471.914244 -529.068089 1797.271729 135 123 113
509.381104 -408.572626 1659.028625 250 241 231
540.746450 -309.357333 1572.671318 248 241 234
539.304256 -316.420054 1576.470184 103 92 88
492.732811 -466.122961 1721.804237 234 225 215
512.963104 -401.551628 1649.542427 251 248 240
537.973356 -321.648765 1579.039574 130 118 112
534.715462 -331.909060 1583.434868 123 111 107
504.010153 -433.660173 1688.183784 254 250 242
541.773796 -314.184761 1579.382324 241 234 225
467.079115 -556.839371 1834.857368 137 125 115
495.485306 -464.867830 1721.597481 120 108 98
495.485306 -464.867830 1721.597481 120 108 98
479.278946 -522.300625 1792.116928 243 231 221
495.707703 -471.671963 1729.676437 112 100 90
504.695988 -445.956039 1702.273560 253 250 241
489.562511 -495.750189 1759.736633 144 132 122
487.908936 -502.646446 1767.477226 143 131 121
541.989279 -329.119205 1588.689232 234 223 217
487.231541 -514.319181 1781.605339 137 127 117
487.231541 -514.319181 1781.605339 137 127 117
511.886454 -439.273739 1697.171783 164 151 144
511.886454 -439.273739 1697.171783 164 151 144
489.821529 -512.629652 1780.345345 247 238 228
489.821529 -512.629652 1780.345345 247 238 228
514.353657 -432.601023 1690.437317 254 250 242
514.292908 -435.187101 1694.147682 144 134 126
494.246674 -503.100157 1771.343994 149 137 127
522.426939 -410.602188 1666.668892 254 252 244
544.486618 -343.955374 1602.809906 247 237 229
547.650623 -334.421682 1596.538353 241 232 223
516.996241 -437.221098 1693.377495 152 138 130
496.543598 -511.894464 1784.512520 248 238 228
555.922556 -314.582849 1586.052895 52 49 48
493.817663 -521.116972 1793.311310 143 131 121
552.041864 -329.702997 1596.020603 249 245 237
496.906233 -521.864128 1794.273567 252 243 233
500.180197 -511.248827 1783.497620 138 126 116
555.305815 -327.151680 1598.693848 251 248 243
503.493786 -505.440235 1777.186203 131 119 109
517.041349 -467.547703 1733.390427 250 242 233
516.285324 -470.477724 1736.481476 130 118 108
554.970360 -344.629431 1635.437393 222 212 205
522.172594 -454.884815 1719.828987 254 252 243
532.680798 -424.737883 1686.276627 255 253 245
521.234512 -465.874434 1733.437729 132 120 110
558.874989 -342.725039 1611.994362 254 251 244
554.036427 -359.312177 1623.726845 122 110 103
529.573059 -446.195030 1711.137199 255 253 245
567.365742 -338.248658 1617.753220 70 66 65
526.747704 -483.240700 1756.935692 123 111 101
524.329281 -492.743254 1770.411491 141 129 119
517.209005 -527.642441 1813.765526 250 241 231
566.230488 -357.203150 1629.889488 110 99 95
563.739157 -369.940591 1641.732025 252 247 240
527.561855 -500.257730 1781.957436 254 248 238
533.801985 -480.228233 1756.399155 249 241 232
537.879801 -473.202085 1749.304008 186 175 165
533.508825 -490.821886 1769.446182 254 252 243
529.617882 -506.272316 1788.363266 134 122 112
569.060850 -372.189713 1647.864342 241 233 226
532.222939 -505.044746 1790.279579 248 240 230
532.222939 -505.044746 1790.279579 248 240 230
611.590767 -344.046378 1811.229515 224 223 222
195.296800 -292.588997 1474.831009 12 9 5
256.192803 -240.233850 1440.698147 11 6 4
294.306493 -217.654586 1426.933479 6 3 2
296.524501 -214.672589 1425.325394 64 62 55
302.020574 -222.988915 1433.146000 70 66 61
302.108455 -226.193070 1435.525417 15 11 8
316.400790 -222.518253 1434.487820 10 5 4
311.486125 -238.591981 1447.977066 82 80 71
311.749864 -241.296887 1448.783112 14 7 12
316.836238 -235.928416 1444.779778 74 70 65
329.545140 -215.934014 1433.724308 61 57 52
317.095041 -239.396262 1448.163700 12 7 5
290.731788 -288.775229 1486.791801 11 7 3
296.834850 -292.838049 1490.315723 17 13 8
296.600676 -295.633578 1494.822979 11 7 3
354.847431 -205.362892 1433.066082 14 11 7
294.501925 -303.343344 1499.602985 12 8 5
370.937395 -202.615523 1435.189056 23 20 16
295.572495 -322.324824 1518.021011 10 6 3
341.033125 -257.033134 1468.717098 14 10 6
360.205317 -226.852894 1450.154400 27 22 18
361.413670 -228.297520 1451.329899 103 100 93
361.623788 -233.150077 1454.909801 86 83 76
347.387791 -265.476823 1476.370811 13 9 4
317.689347 -317.740154 1517.082310 20 14 10
329.404426 -300.771356 1503.152943 19 13 9
337.307334 -290.932965 1497.833729 58 54 49
371.811175 -237.738585 1459.751606 17 12 10
376.970124 -228.210711 1456.235981 98 95 88
376.312351 -230.465746 1457.916641 27 22 19
385.628796 -218.570161 1450.675488 29 26 22
369.606066 -247.540689 1467.806530 93 88 84
369.606066 -247.540689 1467.806530 93 88 84
340.211487 -294.158340 1501.455116 26 22 17
382.316613 -234.730291 1461.466217 16 10 10
387.412071 -231.189919 1459.407139 30 26 26
401.669502 -219.918776 1456.423378 20 16 15
300.376153 -380.496907 1579.132652 27 23 19
392.650151 -238.907576 1466.383457 23 18 15
394.541883 -240.597892 1468.281460 82 78 73
333.342886 -339.476562 1539.327049 19 15 11
406.065607 -222.438192 1458.414555 26 21 21
383.278751 -266.149664 1485.698128 93 90 82
383.278751 -266.149664 1485.698128 93 90 82
400.242949 -238.686323 1469.042015 23 18 17
406.438351 -232.590556 1466.373444 78 73 71
418.558693 -218.925881 1462.192535 68 63 60
410.700464 -234.976768 1469.862938 141 139 128
365.638900 -310.119319 1520.132351 18 12 8
411.222315 -237.051392 1471.818924 20 15 11
421.343422 -218.761826 1463.340092 38 34 33
314.557338 -389.404845 1592.387772 22 16 11
377.883744 -298.110271 1510.236835 28 20 20
377.883744 -298.110271 1510.236835 28 20 20
416.421127 -233.418012 1469.548893 22 16 17
380.986214 -294.030190 1508.678818 158 154 142
402.067184 -262.560582 1485.794735 26 20 20
403.809404 -263.978910 1489.019585 120 119 104
417.700338 -238.863063 1476.252079 28 23 21
407.686615 -264.716482 1489.768791 36 31 30
392.027783 -290.721536 1508.827877 36 30 25
416.562319 -251.590586 1483.465385 134 132 122
416.562319 -251.590586 1483.465385 134 132 122
419.897890 -248.044705 1481.835938 26 23 21
340.033317 -377.568388 1582.639122 36 30 25
340.033317 -377.568388 1582.639122 36 30 25
420.174551 -263.379359 1493.461132 36 30 30
398.764920 -305.989361 1522.363663 26 18 17
434.339094 -249.696875 1487.119579 42 36 35
437.358046 -244.504237 1484.513950 26 21 20
439.862585 -247.934961 1487.327385 30 25 22
440.132046 -251.655483 1491.468334 37 31 24
422.254324 -297.730017 1522.000122 23 15 14
422.254324 -297.730017 1522.000122 23 15 14
451.350546 -263.116646 1503.242302 41 38 32
379.587936 -409.285259 1623.210335 25 19 13
261.492610 -592.706394 1834.806824 102 98 93
382.255554 -418.487549 1630.361366 36 32 25
347.224855 -476.211739 1695.698547 34 28 21
346.375775 -481.302691 1700.472641 33 27 20
351.565599 -487.165976 1709.606934 41 35 28
346.458840 -496.930552 1719.832993 40 34 28
485.686159 -267.988706 1518.502903 173 170 158
485.686159 -267.988706 1518.502903 173 170 158
488.058996 -268.617582 1519.516850 48 40 44
349.654174 -518.399954 1750.234795 52 46 39
387.505054 -467.310619 1692.482376 59 53 46
385.509253 -472.676897 1697.327423 38 32 27
308.880401 -597.841835 1848.693466 131 125 120
313.452530 -594.043970 1845.112801 48 42 37
395.329618 -476.254749 1705.867577 45 37 37
378.291965 -504.502869 1733.707619 43 37 29
403.552389 -467.080164 1697.160721 45 39 32
515.552664 -275.162530 1536.618710 58 56 55
374.259043 -517.412758 1750.601006 60 54 47
380.087471 -514.387608 1749.702835 42 34 27
364.985371 -540.070772 1781.281090 48 40 33
381.178689 -520.001507 1757.324791 44 38 31
392.578363 -502.903366 1736.158752 157 149 142
357.802129 -558.047390 1803.270340 54 46 39
378.705549 -533.708382 1773.569679 49 41 34
378.705549 -533.708382 1773.569679 49 41 34
335.485888 -599.561310 1858.189774 114 105 101
335.485888 -599.561310 1858.189774 114 105 101
523.568249 -286.812973 1548.361111 63 59 59
523.568249 -286.812973 1548.361111 63 59 59
377.101970 -539.702177 1780.160332 57 49 42
384.805655 -530.264473 1770.319939 46 38 31
434.257984 -461.401606 1694.915962 48 39 32
456.233406 -426.255894 1663.614464 157 149 142
358.229089 -585.426521 1840.561867 69 61 54
437.206173 -465.495968 1702.057076 180 173 166
352.193236 -601.571655 1861.511803 62 54 47
409.447050 -513.761330 1755.849075 47 39 32
408.297873 -517.208481 1761.982155 171 163 156
424.714947 -494.405603 1735.058784 198 193 186
415.583992 -519.640732 1764.835548 63 53 46
415.583992 -519.640732 1764.835548 63 53 46
423.524284 -508.631849 1749.991417 60 52 45
524.040747 -338.961625 1591.876411 73 63 63
541.000700 -305.637908 1574.624729 76 70 72
470.706272 -437.795591 1677.792358 66 56 49
364.451194 -615.499830 1888.501549 70 62 55
545.683575 -306.888866 1579.534054 73 68 68
510.843420 -378.119612 1625.727654 72 63 59
516.987896 -370.061970 1617.230988 210 202 195
440.535784 -503.551006 1750.480843 59 50 41
522.987843 -369.401765 1618.434906 251 245 238
508.203983 -412.667894 1661.639786 237 229 222
508.203983 -412.667894 1661.639786 237 229 222
479.215908 -464.751530 1712.117767 205 195 188
435.010672 -544.138432 1803.217697 74 64 57
536.486149 -367.068315 1624.962425 113 102 98
552.873087 -338.914061 1605.514717 86 74 75
529.016733 -389.289570 1642.651367 241 234 227
540.912104 -368.586779 1627.527428 80 71 62
529.845381 -395.251822 1648.932076 244 237 233
468.671799 -504.813290 1761.014748 73 64 55
528.647518 -400.250578 1655.680275 118 107 103
418.301725 -593.357229 1869.719887 87 78 69
547.744274 -366.255522 1627.387238 241 231 227
528.012371 -404.788208 1660.051155 80 68 62
531.714678 -399.499369 1654.858017 243 237 233
563.217163 -337.280011 1616.619301 86 77 78
523.131990 -421.670485 1675.612640 239 230 224
541.768408 -387.589073 1646.480370 98 87 83
546.295500 -381.210566 1641.613579 253 247 241
552.603197 -371.762395 1637.149048 249 244 240
533.354235 -409.053469 1667.458153 108 96 90
496.673059 -476.178551 1736.183929 239 232 224
548.246336 -382.533979 1644.187546 95 84 80
520.860052 -433.877039 1689.951515 238 231 222
563.230610 -361.216474 1631.819153 212 201 194
545.887280 -395.505786 1659.566307 252 249 242
523.423195 -439.588833 1697.907066 117 106 98
432.723379 -598.477888 1884.885597 187 178 169
557.124901 -377.686739 1644.387245 237 228 219
528.790617 -431.419849 1690.334129 101 89 81
543.928576 -407.068205 1669.321823 111 99 96
543.928576 -407.068205 1669.321823 111 99 96
545.741558 -405.365086 1670.146370 249 240 232
447.694588 -581.992292 1861.640930 89 80 71
537.428522 -423.085880 1684.252167 102 92 84
549.084330 -400.995016 1665.176964 254 251 245
545.783424 -413.462782 1678.820610 248 237 230
550.541735 -405.376577 1670.543098 99 88 80
559.513426 -388.084650 1657.514381 110 100 93
559.513426 -388.084650 1657.514381 110 100 93
452.002478 -584.173489 1868.027115 96 87 78
532.239342 -441.574383 1705.587769 238 228 220
550.076771 -408.537340 1674.628067 243 233 225
469.366074 -557.828712 1838.263702 99 88 80
473.042774 -553.951883 1827.537346 174 163 155
522.712708 -464.773369 1728.953171 108 97 89
510.815048 -487.084723 1752.553749 105 96 87
533.709240 -445.505714 1711.214066 135 123 115
572.043800 -371.437383 1649.779892 117 107 102
543.034983 -429.653358 1698.227119 253 248 239
542.221785 -432.197380 1696.775818 130 120 112
550.177765 -416.244555 1686.666679 248 241 233
533.538008 -450.699520 1716.026115 100 89 81
567.952824 -386.670327 1660.313034 233 223 216
554.722023 -417.780066 1687.985992 243 237 230
570.877552 -386.400938 1663.870430 123 110 104
538.385534 -451.036739 1719.759750 246 241 232
535.404587 -457.288218 1723.686981 126 115 107
585.855913 -371.542668 1611.198044 80 77 76
526.519012 -474.930763 1743.782806 252 247 239
548.976469 -433.271074 1702.619362 109 98 90
566.985464 -398.597455 1673.709869 118 107 102
548.045349 -435.813141 1704.660034 247 241 232
561.079693 -411.062956 1683.416176 246 238 228
561.079693 -411.062956 1683.416176 246 238 228
554.461527 -423.930836 1694.487762 136 125 117
556.126881 -421.454144 1692.388916 254 250 241
533.305359 -465.834618 1734.500313 121 110 102
522.310686 -486.378622 1758.584023 116 101 94
546.962500 -440.946674 1709.314728 245 239 230
536.525488 -461.602020 1733.718300 141 130 122
612.738991 -220.880604 1914.198875 122 131 134
543.470478 -451.401949 1721.944809 252 247 239
585.698462 -317.771125 1810.029602 89 87 86
557.772017 -424.530602 1698.327637 252 241 233
522.474194 -492.736387 1765.778160 248 238 230
522.474194 -492.736387 1765.778160 248 238 230
519.964123 -499.326420 1772.359657 91 80 72
540.831423 -460.439205 1731.507492 249 246 237
540.831423 -460.439205 1731.507492 249 246 237
543.928099 -455.436087 1725.979424 254 246 239
543.928099 -455.436087 1725.979424 254 246 239
563.842487 -417.029381 1690.671158 248 238 232
527.535200 -486.628628 1760.329056 115 104 96
552.278471 -440.872717 1713.455200 253 247 240
556.948805 -434.225512 1707.448387 252 247 241
543.901968 -463.239479 1737.464142 109 96 88
553.170967 -448.925400 1725.631905 244 237 229
522.144508 -509.285402 1785.237694 250 244 236
548.970842 -459.202909 1734.803963 150 141 132
546.207094 -464.951372 1741.792870 251 246 237
542.540359 -474.811172 1750.848198 254 251 243
557.206059 -448.807049 1726.641273 113 103 97
556.074286 -451.473188 1728.590393 250 247 238
544.872189 -472.990894 1750.242805 105 94 88
555.851603 -455.638313 1733.319855 248 243 234
543.811893 -480.752563 1760.682487 190 181 172
534.256124 -503.290892 1783.423615 238 228 220
539.060497 -495.661926 1777.905273 245 239 230
559.472513 -457.182360 1737.840652 254 252 243
562.599754 -451.347065 1733.303642 253 251 244
529.602098 -514.982176 1799.969673 115 103 95
532.511950 -512.837124 1797.836876 254 253 245
553.435183 -476.768303 1760.079765 254 253 244
591.484833 -366.443849 1826.330948 180 170 160
550.803661 -483.703518 1766.709328 138 127 119
523.889208 -535.623837 1827.948761 132 118 111
530.995750 -525.736952 1815.101624 122 112 102
588.758898 -381.838965 1810.249710 105 107 107
550.676012 -489.283800 1775.039482 255 253 246
553.518724 -483.745193 1770.494270 255 254 246
533.581972 -525.690269 1819.758797 247 241 232
563.108635 -478.750610 1769.959259 255 254 245
619.422102 -329.705071 1832.422829 120 125 124
585.825109 -474.532652 1783.973503 94 89 84
641.715622 -333.148980 1872.094154 182 195 199
536.035013 -592.669249 1886.796379 148 161 161
73.306340 37.528017 1644.137955 147 156 159
208.946848 -283.458757 1457.856083 42 39 35
270.154834 -236.610031 1428.050613 48 45 41
264.746594 -246.574783 1434.620190 10 6 5
238.914800 -298.530197 1473.160648 5 3 0
308.541560 -230.430269 1429.447460 69 66 62
284.288788 -256.981182 1449.392319 6 2 1
246.506739 -295.610046 1475.134945 67 64 60
309.820294 -238.557220 1436.046124 8 5 2
260.489845 -288.598847 1471.788025 5 2 0
306.274867 -249.412799 1441.248703 7 4 1
337.763047 -225.646615 1427.166557 14 11 8
299.663138 -262.172484 1455.588722 7 4 1
305.393839 -260.687327 1450.587177 78 75 71
305.176139 -264.391422 1451.723289 96 92 88
285.162592 -277.323532 1469.890213 10 5 2
318.536401 -259.001899 1446.027184 11 8 5
309.047151 -267.096281 1456.278706 7 3 1
202.585506 -364.987755 1535.094738 5 3 0
339.982152 -235.214257 1436.723614 12 9 6
361.178446 -210.761213 1425.448608 62 60 59
344.237852 -229.990697 1436.209297 12 8 7
321.072841 -255.781674 1451.302147 8 5 2
274.949646 -307.748294 1480.136585 8 3 1
264.580822 -319.194412 1491.626644 13 8 5
369.911075 -207.583737 1429.305267 19 17 16
279.841685 -309.219837 1487.938976 10 5 2
235.699749 -344.968438 1525.445938 12 9 5
234.011292 -351.142883 1524.108315 6 3 0
283.279610 -309.847140 1487.724400 52 47 44
305.703592 -287.323332 1472.959328 10 5 3
299.028587 -296.210885 1476.728153 8 3 1
287.019897 -307.997346 1485.296059 13 8 5
324.382925 -271.749735 1459.097481 9 4 2
370.789313 -216.519523 1434.281063 59 55 54
326.648927 -273.631978 1458.267498 7 2 1
288.645053 -308.839822 1487.271214 106 101 98
315.443301 -275.689220 1473.475170 7 2 1
271.683455 -324.840808 1500.629139 17 12 9
358.727336 -235.076809 1442.450523 14 10 9
305.030894 -293.554711 1477.574348 72 67 64
354.341078 -239.761615 1447.087669 12 8 7
369.403052 -224.850249 1438.179207 77 73 72
220.965219 -370.571208 1544.003487 10 7 4
287.550807 -309.862232 1494.548035 8 3 1
257.545781 -342.965508 1514.317894 7 2 0
257.545781 -342.965508 1514.317894 7 2 0
365.447307 -225.279093 1447.309017 18 14 13
250.982237 -346.486688 1522.428799 9 4 1
250.982237 -346.486688 1522.428799 9 4 1
203.396249 -390.687585 1558.155632 6 3 1
353.535390 -246.128201 1450.417423 16 12 9
235.912299 -365.064096 1533.036423 5 2 0
361.158371 -237.691998 1448.725128 15 11 8
258.027649 -343.923545 1518.899250 74 71 67
349.984860 -254.597211 1454.348278 14 9 7
307.459044 -298.121428 1488.125801 8 3 1
368.532681 -234.670663 1446.828556 14 11 7
368.532681 -234.670663 1446.828556 14 11 7
347.227812 -261.270094 1461.701870 94 89 86
342.226052 -271.373272 1462.348461 9 4 2
385.913777 -224.899030 1434.540462 13 9 8
331.899667 -280.499744 1472.198963 81 76 73
302.524996 -311.028957 1493.695831 7 2 1
336.442208 -280.310774 1468.976974 11 6 3
280.164289 -332.853746 1511.617374 8 3 1
280.164289 -332.853746 1511.617374 8 3 1
255.194068 -356.355953 1531.814003 8 3 1
326.487422 -290.466142 1478.364182 9 4 2
351.387191 -265.409708 1461.186123 11 6 3
302.087522 -314.364433 1497.240162 10 5 2
359.670901 -251.725793 1460.424900 11 6 3
359.670901 -251.725793 1460.424900 11 6 3
353.242993 -261.283469 1462.878990 87 82 78
360.566044 -244.159055 1465.238667 12 7 5
340.105081 -277.243924 1471.077919 11 6 3
370.710826 -244.957685 1451.718998 14 9 6
353.126431 -267.059302 1463.851357 91 87 82
298.789287 -325.978494 1501.881409 11 7 3
307.005930 -317.948627 1496.634865 10 6 3
385.757756 -232.587790 1445.602703 17 14 10
392.545223 -225.616527 1442.006683 84 81 77
285.694098 -339.872599 1514.251423 72 67 64
323.140097 -301.146698 1488.881016 87 82 79
381.186676 -239.621902 1450.020218 90 87 83
381.186676 -239.621902 1450.020218 90 87 83
329.742765 -293.540764 1485.616302 9 4 2
391.046023 -228.199911 1445.402718 16 12 10
335.503531 -291.090083 1479.885387 16 11 8
386.597490 -239.583206 1447.799587 15 12 9
186.982644 -424.448729 1602.697945 10 7 4
368.136835 -259.426641 1462.490940 17 12 9
184.950459 -429.826546 1604.251480 14 11 7
395.984697 -228.403735 1445.952225 77 74 70
269.916034 -361.418033 1534.539318 8 3 1
334.156489 -296.654415 1488.950062 13 8 5
357.580256 -274.793339 1471.810532 51 46 43
357.580256 -274.793339 1471.810532 51 46 43
319.843364 -315.719891 1496.965504 74 69 66
374.780011 -256.354523 1460.867596 14 9 6
304.925060 -330.562925 1508.840847 10 6 3
320.693684 -311.765695 1499.636936 83 78 75
360.144377 -273.735547 1470.142937 24 19 16
206.013203 -417.756271 1590.125942 15 12 8
206.013203 -417.756271 1590.125942 15 12 8
384.758019 -245.592427 1457.194138 78 75 71
388.524294 -240.909600 1455.166817 15 12 8
371.175027 -261.759496 1465.255260 15 10 8
320.650911 -318.825340 1498.107433 19 14 12
304.526234 -334.290266 1510.929298 10 6 3
329.052615 -312.451053 1492.226124 10 5 2
346.049953 -287.655783 1485.368347 57 52 49
296.710563 -336.572313 1523.450851 7 3 0
296.710563 -336.572313 1523.450851 7 3 0
382.574272 -253.192973 1460.722351 82 79 75
344.969893 -292.664337 1487.432957 14 9 7
374.100828 -259.166503 1469.281006 13 8 5
302.029943 -339.547229 1517.065811 9 5 1
334.630179 -309.043050 1496.688271 12 7 4
378.475499 -260.418010 1468.530464 87 82 79
378.475499 -260.418010 1468.530464 87 82 79
379.563332 -264.006591 1467.323208 9 4 3
345.063114 -299.521542 1492.317295 15 10 8
281.160784 -363.903308 1539.911556 13 8 6
340.148497 -307.223177 1494.851971 9 4 2
337.156415 -308.871031 1499.909592 83 78 75
327.428222 -324.398613 1505.564690 12 8 5
320.301461 -328.163338 1513.779545 16 11 9
320.301461 -328.163338 1513.779545 16 11 9
336.109138 -311.270642 1503.185844 12 7 4
368.698096 -277.682495 1480.420303 14 9 6
368.698096 -277.682495 1480.420303 14 9 6
413.977337 -226.163030 1451.778698 22 18 17
413.977337 -226.163030 1451.778698 22 18 17
408.687353 -232.550192 1457.213688 17 14 10
380.884981 -266.674232 1472.844791 15 10 7
296.657610 -350.966215 1535.504436 9 5 1
377.879763 -276.831484 1471.948624 19 14 11
385.860324 -262.500334 1471.353436 22 17 14
338.967538 -312.240863 1504.753876 68 65 59
338.967538 -312.240863 1504.753876 68 65 59
369.839168 -283.584309 1480.843163 12 7 5
408.534956 -237.818742 1458.525467 21 18 14
385.054922 -269.879580 1470.177555 88 83 80
365.359807 -288.315725 1486.913013 78 73 70
378.605843 -276.132536 1476.364040 95 90 87
362.525654 -289.783049 1491.741276 14 9 7
406.295061 -244.198394 1460.673809 102 98 97
409.829378 -237.841010 1460.678005 20 17 13
416.178703 -231.206179 1456.736183 93 90 85
332.643938 -325.919151 1511.833858 11 7 2
395.470858 -259.840465 1468.461704 18 15 11
373.889923 -285.830235 1483.023167 16 11 8
385.271978 -275.639248 1473.490047 14 9 6
376.628709 -283.301997 1480.970478 80 75 72
351.964378 -309.105015 1499.501896 75 70 67
351.964378 -309.105015 1499.501896 75 70 67
387.632060 -269.273353 1476.351357 71 66 63
