ply
            format ascii 1.0
            element vertex 34790
            property float x
            property float y
            property float z
            property uchar blue
            property uchar green
            property uchar red
            end_header
-508.230257 61.076212 1850.928307 215 242 248
-520.474148 101.358819 1853.739166 179 184 183
-512.617493 59.135908 1841.386223 89 104 121
-557.835722 -30.772826 1710.870361 89 104 121
-508.747864 63.570386 1839.735603 226 245 249
-507.606840 67.975497 1837.179375 216 236 241
103.456116 -798.349714 2321.044159 82 111 132
-509.014702 142.852080 1858.862495 0 0 0
-508.181381 72.716504 1819.744682 217 239 244
-508.736897 73.824698 1812.980652 213 239 244
-492.813826 65.652621 1829.806900 94 141 169
-664.844275 1186.062050 2155.329514 192 194 194
-510.076904 72.746688 1804.226112 223 236 241
-491.479778 261.807632 1931.839943 165 170 171
-654.600763 1170.286369 2154.876709 129 133 134
-503.978729 88.267660 1811.753654 210 239 243
-283.964801 12.638168 2077.611542 104 159 196
-444.369602 68.753737 1865.926170 138 185 216
-444.369602 68.753737 1865.926170 138 185 216
-504.793692 95.108128 1786.718369 225 246 251
-438.057566 58.766311 1857.652855 100 147 178
-151.391065 -42.526633 2198.114586 69 121 157
-442.272997 1126.127052 2342.724800 89 94 97
-390.414238 92.620885 1894.555283 85 135 167
-390.414238 92.620885 1894.555283 85 135 167
-415.663910 1139.672565 2353.441429 103 109 112
505.719614 27.308387 3087.491226 215 218 216
-504.002380 123.954296 1715.573502 172 208 232
428.580570 -140.456605 2874.960518 213 221 224
-231.284595 -112.512493 1975.322914 81 131 167
139.020419 -199.413633 2441.042900 215 218 216
-157.119167 -5.973120 2112.886620 97 151 188
331.175804 365.775490 2943.999863 66 117 154
-510.634613 125.353134 1679.675674 68 89 110
-125.520909 -4.215819 2124.051094 48 94 132
-504.769135 138.160276 1670.808220 158 183 205
-52.584296 -33.687657 2196.431541 117 169 202
-52.584296 -33.687657 2196.431541 117 169 202
-45.608062 -34.107667 2203.122139 44 94 129
-37.251630 -30.027217 2205.266571 138 186 219
-43.508437 -25.311023 2194.977379 129 177 211
-292.397928 1147.193813 2362.482834 87 94 97
-28.377756 -26.773006 2208.342361 150 199 232
-444.340754 136.363995 1722.689819 109 125 139
-446.642637 135.131383 1714.745140 80 99 115
-503.860664 151.513171 1641.104317 132 162 186
-54.261178 -22.123110 2151.574326 40 90 126
-501.735020 157.718766 1641.991425 132 157 178
-94.381744 3.962500 2105.446815 79 137 176
-447.340775 130.711424 1700.639343 126 151 172
-432.495213 131.285417 1718.449020 36 41 43
-432.495213 131.285417 1718.449020 36 41 43
-432.495213 131.285417 1718.449020 36 41 43
-245.691824 1155.201530 2372.284508 84 93 96
360.710382 -223.243117 2582.458115 217 223 220
-95.665008 12.536015 2092.561722 24 71 109
346.755123 -231.519818 2559.350014 217 223 220
-504.505491 155.725849 1620.988464 140 169 190
-533.787251 -42.440841 1498.029900 126 151 172
-495.190477 179.341066 1635.618210 145 172 191
-416.875696 138.906801 1715.005684 127 157 176
-422.100353 135.105014 1704.734039 121 163 184
426.832628 -16.073212 2713.106346 206 211 209
47.606966 -6.385572 2188.750839 104 153 187
-910.247803 -820.940876 691.138506 78 113 139
420.080900 -873.635674 2305.513573 33 39 42
431.223679 -884.978390 2309.833717 17 27 37
431.223679 -884.978390 2309.833717 17 27 37
334.667301 -80.196208 2488.898277 201 198 188
428.025103 -875.272560 2301.856041 31 38 46
402.048826 -486.822557 2415.017128 22 33 35
368.773580 -256.220460 2457.808304 205 207 207
407.041836 -477.341270 2421.547318 100 112 113
330.961990 -272.631598 2403.352547 205 207 207
405.715179 -490.983534 2405.158043 15 28 41
408.739233 -494.463348 2404.751015 85 103 119
-426.871586 165.734148 1643.958855 136 180 209
338.133574 -1062.546349 2103.156281 53 86 106
-273.380399 798.443460 2055.224991 73 82 85
425.420713 -829.772663 2284.879494 50 75 95
-412.217760 172.728491 1650.653839 140 183 212
-406.889200 171.463251 1649.423409 139 181 209
15.828159 26.742241 2095.327187 107 154 186
15.828159 26.742241 2095.327187 107 154 186
486.339140 -944.874954 2283.346176 45 68 88
153.183305 -8.184642 2218.605232 110 157 189
465.181971 -601.458836 2369.718933 45 68 85
458.503008 -374.274564 2441.475296 50 82 104
46.974188 32.784623 2099.072838 85 139 172
-954.678154 -848.982525 597.152662 7 8 5
-354.355669 180.738044 1643.139076 85 129 158
23.667940 58.636308 2025.101852 89 134 167
554.471302 -109.322834 2551.829529 204 209 207
-489.652777 240.205717 1501.119518 41 55 74
-333.155608 174.313700 1652.545547 142 187 214
-333.155608 174.313700 1652.545547 142 187 214
-419.516468 212.137341 1564.279747 142 187 214
-419.516468 212.137341 1564.279747 142 187 214
-67.404711 98.682356 1901.569366 99 149 179
-76.269072 1240.996456 2248.068619 83 89 92
-76.269072 1240.996456 2248.068619 83 89 92
-1049.775791 -853.893852 479.218006 114 117 107
-972.178078 -856.126595 563.818312 195 225 246
-437.111282 229.725170 1514.257908 60 102 131
-437.111282 229.725170 1514.257908 60 102 131
-82.114583 1243.030453 2197.726631 147 152 153
-308.579540 1366.878605 1991.160393 199 204 205
-409.084702 228.039432 1534.107399 128 174 205
-684.445047 -691.160488 960.320473 206 211 209
350.620699 10.426053 2236.326218 103 137 163
360.100317 7.401815 2242.153549 51 76 96
-415.221786 243.431211 1504.020500 100 143 169
-72.018415 1286.525631 2157.287216 117 119 120
360.696411 7.766878 2233.613777 118 128 130
-406.541157 247.939825 1507.637119 99 142 170
436.680603 -11.850764 2299.403000 76 101 119
-375.635505 231.782627 1529.376030 48 92 123
502.720070 26.823282 2363.911057 12 14 14
515.283346 38.535526 2370.520782 215 221 221
501.463366 29.934281 2353.141022 215 221 221
255.459166 36.950624 2100.186348 100 151 184
460.898304 44.113171 2282.789993 52 96 127
-150.835168 183.839118 1698.832321 119 166 197
423.069000 37.313929 2225.531387 81 129 162
1053.682232 -464.920378 2707.929039 156 163 166
-302.722311 239.489913 1546.199989 69 113 142
-63.164902 1350.624943 2061.854935 120 124 125
-72.462612 1341.970730 2048.342133 170 174 175
-116.976571 186.495245 1702.820778 120 167 195
-116.976571 186.495245 1702.820778 120 167 195
-68.922877 1357.296181 2052.123833 173 177 178
-120.292234 207.209516 1686.793327 129 176 204
-120.292234 207.209516 1686.793327 129 176 204
-64.220673 1372.652721 2006.292725 118 123 124
-258.817887 244.218802 1546.005535 114 158 187
-99.862784 204.250360 1677.580070 82 126 155
-280.621529 250.994253 1519.914722 106 152 180
448.606634 64.797312 2143.453979 57 86 102
-228.679538 245.167637 1551.338291 70 113 140
-228.679538 245.167637 1551.338291 70 113 140
436.196756 71.336538 2120.699692 28 50 65
-236.480665 237.781763 1540.466690 117 160 187
-223.621583 245.983553 1552.013111 70 113 140
-118.601298 221.280956 1635.457230 78 121 148
452.811956 83.243394 2108.761215 80 108 128
432.726097 72.802824 2078.936768 76 109 128
-222.532392 262.183642 1531.065369 106 151 178
-103.972471 235.622287 1614.404106 91 134 161
-36.753035 1477.028942 1940.630531 125 128 132
470.841265 110.268021 2078.030014 201 207 209
459.547281 111.899817 2055.597687 93 128 153
-94.420296 277.135992 1601.196098 99 142 169
471.204996 1312.448215 2290.492630 154 159 162
-105.459201 257.690263 1566.684628 83 126 153
667.577648 38.790318 2170.779800 97 89 81
513.081837 1283.572292 2261.709023 10 11 9
617.287350 1468.036652 2357.553482 125 130 131
533.978558 1295.188427 2246.748543 31 33 33
444.790173 1210.794926 2156.678581 125 130 131
471.087694 151.185417 1978.013039 199 203 203
311.989975 783.403349 1941.374588 30 34 35
490.942144 212.176895 1925.821114 117 164 195
382.812977 206.661987 1814.800453 69 91 103
389.430523 220.158434 1807.710838 250 252 248
551.147747 263.130236 1936.200142 107 141 158
394.418216 214.402270 1798.665237 161 167 165
-928.619385 -825.429153 639.018440 71 95 113
1054.378700 -702.435732 2134.022141 19 18 18
99.319756 293.976998 1553.844643 52 78 95
-84.251219 195.987904 1385.207367 178 184 183
461.318684 238.901091 1758.570480 86 124 148
476.455879 248.174572 1762.929916 189 197 199
231.155229 296.935248 1595.375347 82 122 147
269.543171 301.647067 1599.839020 74 114 139
-938.856983 -834.407043 623.043013 167 172 171
-891.369534 -807.133865 651.207542 209 212 210
420.597649 316.158056 1593.279648 97 138 165
474.380493 328.568625 1596.071243 52 72 84
-953.858471 -838.596439 583.404541 147 152 153
-828.420448 494.560432 3722.298813 157 159 159
-819.644356 498.624659 3730.296326 155 157 157
-439.402723 -1184.960938 2351.112556 83 111 128
-408.404589 -1163.895893 2514.908791 89 110 124
-690.646267 -947.840405 1425.671101 89 110 124
-454.162025 -1024.098778 2314.764595 86 114 134
-454.162025 -1024.098778 2314.764595 86 114 134
-937.559605 -836.607361 486.322689 174 170 164
-462.989950 -943.647289 2316.070747 82 109 129
-459.322786 -770.424271 2406.743240 59 88 109
-384.263659 -929.898453 2321.701431 29 38 49
-987.800312 -884.844398 383.120394 6 7 5
-373.986936 -946.658802 2313.036156 88 111 126
-373.315525 -935.783195 2320.699310 99 117 132
-502.511168 -405.601454 2395.765305 110 139 160
-915.317535 -720.088100 698.286772 253 251 244
-477.759981 -296.592975 2509.819984 224 230 233
-478.680611 -300.631833 2499.574089 224 230 233
-435.631800 -545.281982 2373.139000 23 39 51
-618.169880 -121.477914 2228.580666 82 83 81
-618.211031 -155.414462 2194.765282 151 152 151
-618.211031 -155.414462 2194.765282 151 152 151
-410.301971 -538.137531 2387.730217 90 108 115
-647.519016 781.194735 3015.480232 98 103 103
-667.394114 -449.826050 1672.329521 161 167 166
-356.872201 -658.821726 2351.864815 96 127 148
-277.245593 -948.414040 2291.820526 90 114 136
-678.866482 -465.432882 1617.579269 161 167 166
-514.497566 -135.975015 2401.906967 129 154 167
-317.213273 -762.393284 2329.508781 40 70 93
-593.095255 -184.691370 2095.662498 115 111 102
-458.208275 -192.469299 2437.945175 5 3 2
-397.640252 -293.877363 2491.074562 218 224 219
-367.197347 -261.499095 2595.857811 212 217 215
-566.732502 -82.520443 2205.178642 8 6 6
-617.616081 -159.347570 1998.974991 2 3 3
-924.382401 1067.037106 2267.490387 86 88 89
-914.447498 1077.318287 2277.692795 99 102 103
-480.471659 -125.527322 2336.210442 135 183 214
-591.738605 -78.910834 2090.821648 4 5 3
-563.764143 111.795652 2300.846863 194 199 198
-500.300932 -140.092754 2227.663994 138 185 216
-884.822369 1072.423077 2268.690109 171 175 176
-511.631441 -147.982204 2172.812843 149 186 212
-584.287643 -126.048613 1952.429199 248 243 232
-469.512367 -86.378282 2231.969452 148 192 221
-469.539833 -89.064544 2217.280579 22 53 85
-827.360153 1081.140232 2288.767433 172 173 174
-825.419521 1083.782387 2285.944557 70 72 73
-565.161896 -30.936462 2029.812050 50 46 41
-515.436363 -118.920040 2068.027306 41 61 79
-925.627422 -830.329418 498.710489 170 172 170
-783.120918 1092.101288 2286.698151 179 183 184
-752.380800 1080.535221 2307.183647 46 50 51
-984.924793 -834.404945 412.525272 207 209 206
-504.196835 -87.181228 1994.453812 114 161 193
-613.455057 100.562108 1888.225555 171 177 176
-616.667938 145.959902 1905.262566 170 175 174
-416.559553 -56.299007 2179.159164 74 125 157
-507.945490 -76.894295 1970.748138 102 147 181
-719.538069 1093.440723 2304.912758 170 174 175
-605.544090 123.180270 1890.191650 170 175 176
-417.890930 -46.916351 2146.046448 143 192 224
-368.482518 -71.937585 2221.053886 137 185 218
-359.818840 -74.151367 2227.962875 94 143 175
-615.387774 173.401284 1871.167374 18 18 18
-616.004515 170.503783 1857.733727 183 188 187
-461.217976 -1.741078 2040.008926 60 105 138
-505.777693 -45.036092 1920.919418 113 162 194
-383.093429 -44.637626 2148.210335 66 115 149
-374.519682 -46.944946 2155.143929 139 191 227
-322.201633 369.391227 2502.407074 147 193 221
-369.578600 -35.814321 2152.218628 93 141 175
-370.902467 -44.818985 2141.670990 58 106 140
-405.589008 -16.655943 2087.352371 91 136 169
-639.337587 1102.223778 2310.735321 98 98 100
-361.848354 -42.958546 2140.042114 87 135 169
-562.450123 124.053466 1859.638405 9 7 6
-427.570915 -5.498202 2031.033325 56 100 131
-624.235487 1104.329109 2312.132263 97 101 102
-378.868318 -26.680255 2095.165062 123 174 207
-411.279726 7.167576 2014.938736 95 140 173
-432.519865 20.544268 1974.053383 79 128 159
-542.714214 25.874165 1773.877907 91 105 115
-683.435202 -495.687532 1162.556839 99 152 189
-493.647814 72.030687 1868.220329 154 198 222
-663.579893 1234.305573 2192.133713 183 185 185
-511.684847 141.002393 1854.396248 0 0 0
-483.846569 67.769635 1862.471199 143 189 217
-293.538260 -29.025173 2140.265656 37 87 125
40.653679 -782.434368 2314.847183 14 38 58
47.569987 -786.578131 2321.598816 57 85 106
-499.063253 81.870061 1820.455933 126 172 197
-499.063253 81.870061 1820.455933 126 172 197
-504.471684 165.642047 1844.005013 167 173 172
-521.147060 742.914534 2118.546867 165 171 174
-487.668180 83.436847 1822.141457 113 159 185
-486.649275 134.215450 1846.850204 224 250 252
-624.662924 1136.315536 2120.025444 20 21 19
-478.070498 78.345406 1823.752594 104 150 180
-477.384853 83.610195 1826.583672 157 202 229
-548.891258 844.438076 2075.009155 67 73 76
-215.360165 -53.212225 2179.872704 65 117 153
-215.360165 -53.212225 2179.872704 65 117 153
-459.650755 84.417427 1828.665161 147 194 222
-429.208612 72.196907 1872.224617 137 185 213
-827.925587 -397.967386 913.318348 165 171 174
-223.707271 -36.752248 2148.156929 104 158 195
-919.344425 -823.910236 517.812204 254 254 245
-476.657438 101.133347 1790.366554 128 178 205
-581.016636 1188.937092 2140.254784 154 158 159
-572.378063 1159.977341 2135.459328 155 160 161
-198.468626 -25.354710 2134.964561 50 99 135
-192.456245 -24.070784 2144.887733 74 123 159
92.164814 -484.595203 2377.327728 70 107 129
-379.103398 80.806655 1865.403366 91 141 174
-350.006771 1135.303497 2350.975990 54 57 61
-350.060415 81.956917 1872.963715 138 190 219
-444.150591 135.791826 1728.042221 66 95 119
-96.774381 -38.819361 2142.586136 79 133 168
-926.006699 -835.064697 501.311398 67 73 76
-47.226372 -30.353016 2205.097580 131 182 215
-41.114506 -31.664765 2210.095978 58 109 143
-124.369872 7.613161 2097.545242 120 178 214
-417.448664 144.250989 1720.191765 62 76 85
-250.393248 1144.023037 2361.458397 87 96 99
-905.414486 -784.009075 559.699345 67 73 76
-28.434750 -28.587678 2206.850433 156 207 239
-495.381117 190.475285 1612.739944 170 194 212
-85.218954 -1.175926 2121.834183 38 87 125
-94.442785 2.723929 2104.440880 79 140 176
-41.020504 -11.561015 2174.092293 39 87 123
-58.307588 8.288196 2144.758606 32 85 122
-95.629126 11.314125 2091.700745 19 71 108
-499.084330 196.428597 1587.249374 86 105 117
-499.098587 199.507880 1579.953289 78 97 112
-413.492060 161.561847 1674.860382 129 173 197
-420.454121 171.677208 1655.507088 82 128 159
-410.262823 175.345957 1647.380638 94 139 168
-410.262823 175.345957 1647.380638 94 139 168
-417.846632 176.837850 1634.263229 132 176 205
-411.506653 176.113939 1642.252731 142 182 210
-31.771892 23.097087 2077.678871 68 120 156
84.366906 -28.316230 2208.833694 62 113 146
-503.838396 225.426865 1506.165123 64 85 100
-13.668601 19.399196 2074.515915 99 154 189
-492.629433 223.375773 1503.822327 49 85 113
-345.165920 167.640269 1675.498772 81 127 158
376.810575 -561.251450 2359.890938 39 63 85
-415.214872 195.301628 1583.339882 146 190 213
-329.931068 165.612638 1680.085945 121 168 199
419.455671 -882.826233 2296.479225 26 34 45
284.203339 -580.325270 2221.402550 39 63 85
-426.816320 210.189748 1566.816521 107 152 179
397.104788 -493.383598 2393.286133 24 33 44
-333.340335 170.322299 1672.912598 130 177 204
-484.982443 244.149661 1502.661133 94 123 143
423.886919 -881.113243 2295.247841 85 105 121
-420.263529 212.895465 1564.163589 153 197 221
33.576471 19.382527 2077.071381 91 143 176
143.838346 -17.148639 2203.123665 105 150 183
-330.439353 179.268920 1657.737350 135 180 207
419.966221 -289.267278 2450.738716 56 94 118
419.966221 -289.267278 2450.738716 56 94 118
-410.428524 213.343120 1564.198303 146 190 217
395.640731 -123.159826 2473.019981 205 210 208
401.643372 -124.689484 2478.816986 205 210 208
-445.226765 256.329727 1523.689842 95 142 173
-324.077892 183.603871 1650.429344 135 180 207
-317.492628 183.721483 1656.254768 82 129 160
-317.492628 183.721483 1656.254768 82 129 160
-833.632469 -815.105152 630.625391 49 75 97
453.881550 -569.972038 2369.256210 28 51 73
-420.113659 228.107977 1533.868313 124 171 200
474.530220 -882.198715 2296.695328 55 80 100
-85.072696 1216.796970 2246.736717 88 93 96
476.597643 -887.182426 2291.588020 49 72 89
427.998018 -923.401546 2216.715622 49 75 97
423.350000 -760.054207 2249.378204 201 212 203
-74.080402 1248.947525 2253.740883 75 82 85
652.003670 -687.188768 2530.761337 208 216 211
-72.378880 1279.450130 2187.825775 137 141 142
-72.378880 1279.450130 2187.825775 137 141 142
134.755862 102.646875 2081.842041 107 156 187
-810.435200 -575.163507 769.543743 226 243 246
420.733833 -54.677725 2352.459717 97 128 143
-377.972937 239.507842 1507.336998 112 161 188
-546.688843 -609.961033 1068.353367 211 214 212
521.912432 26.693019 2439.951706 95 122 143
450.023651 31.036025 2353.091049 98 139 170
-773.397160 -832.382011 677.526379 254 255 247
370.782971 10.504995 2221.507454 109 115 119
-242.424345 428.547144 1647.148895 126 134 134
189.182925 59.553051 2020.018387 87 130 163
-284.474158 237.582755 1538.758469 117 164 192
-284.802055 236.801267 1538.072777 117 164 192
-48.302048 1412.188339 2047.444344 134 139 142
-48.302048 1412.188339 2047.444344 134 139 142
-47.360846 1421.597385 2036.958885 118 123 125
396.648932 -2.072461 2169.348907 59 96 125
-45.999897 1427.569771 2032.037163 121 126 127
-45.999897 1427.569771 2032.037163 121 126 127
-104.513419 198.066783 1671.178436 87 133 161
-230.013347 244.315815 1550.065231 76 120 149
423.418808 20.734352 2178.734779 80 114 140
-114.614356 197.924209 1655.913925 130 174 203
-48.246408 1433.458138 1984.141350 139 144 147
-118.171918 219.626498 1623.054695 78 124 151
-118.171918 219.626498 1623.054695 78 124 151
-112.263417 219.657779 1628.686142 133 178 205
-191.783130 246.263814 1552.761650 79 123 152
-190.976763 250.767064 1552.929115 122 166 195
-111.302757 230.528402 1600.962448 99 144 171
422.178459 56.583786 2081.112289 70 99 117
-105.432200 236.652970 1596.286964 99 144 171
431.404161 94.812346 2014.736366 106 139 161
211.081243 -237.638712 1739.234924 195 182 168
319.701934 850.656986 2024.606705 134 139 140
436.255693 114.886117 1978.232956 99 139 160
205.224824 -39.291275 1712.960052 120 148 164
431.775713 128.849435 1930.269241 95 131 156
601.858759 1295.140266 2261.607933 165 170 171
814.909458 163.848293 2270.429420 83 75 68
502.587271 185.999680 1959.896851 201 206 204
480.420923 171.493721 1937.013435 201 206 204
353.924084 197.965348 1790.307808 73 118 152
363.892388 196.285737 1791.476440 242 247 250
364.447784 197.532415 1787.837410 92 98 97
473.372936 185.653698 1869.829941 19 20 18
379.924512 193.155551 1787.762260 168 173 177
-447.239590 -483.789492 987.996864 203 207 210
-860.340309 -722.171879 620.962906 174 177 177
448.742628 208.206749 1786.832047 93 133 157
144.122088 -24.744441 1510.858440 96 131 155
207.214975 288.755965 1589.202023 82 122 147
238.102961 288.079309 1588.497448 76 116 141
1387.399101 -663.281631 2357.265282 229 214 207
1385.323906 -669.839478 2341.491318 226 210 203
449.714994 238.087869 1721.780014 91 126 152
453.748274 254.691410 1693.613815 78 117 136
-489.555216 -715.300846 886.564159 164 169 169
-488.178349 -713.206911 886.455154 211 211 211
363.844156 201.559520 1573.880196 101 127 142
-864.588356 -741.219854 597.715569 150 155 156
446.703911 323.913622 1591.833019 47 77 99
943.940449 517.708492 1819.928932 136 141 140
-1220.073795 961.175632 2484.462547 159 157 157
-940.449619 744.837666 3084.931946 153 157 158
-470.353079 -1014.456177 2252.173996 93 118 139
-472.409916 -974.707031 2263.501358 89 114 134
-424.158049 -794.576550 2701.100349 215 222 222
-435.203695 -1001.676083 2258.370590 88 115 136
-422.422028 -930.899525 2262.583542 90 108 127
-395.648026 -949.286270 2267.520905 16 21 31
-445.345640 -459.338236 2761.193466 217 223 224
-368.065095 -990.454197 2263.512039 94 121 141
-386.021161 -927.911758 2270.133018 46 69 90
-503.278208 -536.239958 2319.331932 47 76 97
-783.069801 -743.897724 820.926476 62 89 110
-360.820436 -988.089275 2253.498650 90 117 137
-357.469344 -984.074306 2266.428757 92 119 139
-366.808438 -955.749130 2263.524055 90 117 138
-1039.788914 1071.224117 2266.991997 125 127 127
-505.836582 -411.334372 2389.295769 62 91 111
-505.836582 -411.334372 2389.295769 62 91 111
-509.105730 -355.635285 2397.982216 55 84 105
-494.862652 -296.379042 2471.310806 204 209 208
-372.944140 -812.072849 2294.467926 78 106 130
-325.018263 -986.692619 2256.118965 100 127 147
-438.012075 -546.534109 2363.381767 23 34 47
-403.601122 -671.288252 2334.238625 39 66 87
-407.277775 -653.278971 2341.964912 92 123 144
-433.632183 -550.831127 2361.491585 91 102 109
-351.232457 -859.448814 2286.184502 30 53 76
-436.563063 -538.041067 2360.066986 17 28 38
-710.683823 -597.374916 1265.999985 168 173 172
-599.527454 -181.557417 2180.408096 36 32 31
-306.132388 -1000.734043 2245.928955 86 113 133
-306.132388 -1000.734043 2245.928955 86 113 133
-518.599939 -134.465313 2489.576912 202 207 206
-415.266037 -537.479830 2377.997780 98 113 119
-330.193162 -863.444805 2279.178619 73 97 119
-334.205461 -840.173340 2282.255936 85 109 131
-377.088785 -661.682940 2327.283478 87 120 140
-963.108540 1080.559635 2277.486992 104 106 106
-963.108540 1080.559635 2277.486992 104 106 106
-287.054396 -968.718624 2258.745575 89 116 136
-593.608284 -184.541976 2094.787216 119 116 111
-371.166730 -616.035604 2343.668556 22 43 64
-278.852916 -950.788403 2272.091103 88 113 133
-266.277599 -978.761292 2275.824547 96 123 143
-925.894356 1078.623962 2276.640701 83 85 86
-465.010786 692.621851 3323.387909 155 160 159
-596.059227 762.402916 2983.687210 166 171 170
-452.047634 -190.953088 2454.068565 6 4 3
-608.491230 664.720964 2821.581078 166 171 170
-470.403433 -145.471537 2429.202843 236 233 228
-259.385777 -966.883373 2258.637619 87 114 134
-259.385777 -966.883373 2258.637619 87 114 134
-564.301443 19.814456 2305.248451 3 4 2
-553.946686 -183.736050 2100.269699 105 97 88
-311.002254 -673.546791 2348.435593 43 70 91
-418.155432 -137.233007 2463.212395 10 7 4
-468.983221 -99.308830 2317.747498 139 186 215
-407.343245 -130.447292 2443.128014 94 124 140
-219.890261 -880.147266 2280.199814 71 95 117
-713.207817 983.372593 2531.852531 138 144 144
-826.326942 1087.133121 2287.738800 78 80 81
-717.490149 991.907978 2502.441406 136 141 142
-717.490149 991.907978 2502.441406 136 141 142
-717.490149 991.907978 2502.441406 136 141 142
-454.173422 -79.948598 2264.406395 126 173 202
-454.173422 -79.948598 2264.406395 126 173 202
-459.558010 -71.273762 2250.733948 139 180 208
-550.960302 -178.899133 1900.761032 48 68 84
-556.075478 -80.352479 1954.050255 1 2 0
-791.616392 1090.251732 2286.534309 182 186 187
-771.521807 1089.767361 2287.022209 176 180 181
-234.713602 -156.820667 2674.283028 208 213 212
-410.000801 -66.244435 2262.575531 119 165 196
-410.000801 -66.244435 2262.575531 119 165 196
-447.041225 -41.853997 2179.442215 239 249 253
-460.399151 -50.561160 2134.295464 112 158 189
-462.799597 -56.063569 2121.595192 112 158 189
-424.460983 -55.283242 2205.118370 125 171 203
-426.456070 -49.599400 2201.895332 154 201 232
-346.527052 -125.826609 2343.075180 77 124 156
-435.663414 -36.102256 2176.376915 65 72 79
-627.167130 178.119695 1857.004929 168 173 174
-396.204972 -59.925240 2244.800758 147 194 225
-383.967280 -71.629113 2263.913536 84 130 162
-383.339882 -72.980779 2249.874115 138 184 215
-383.339882 -72.980779 2249.874115 138 184 215
-504.237080 -49.214548 1965.777397 128 177 209
-510.719538 -43.942496 1946.191216 104 150 179
-372.078252 -70.566475 2257.137489 147 194 225
-416.308546 -38.494474 2164.599419 124 171 202
-406.629324 -39.428276 2183.064461 63 104 136
-698.535824 1089.293766 2293.718338 98 102 103
-698.535824 1089.293766 2293.718338 98 102 103
-510.402107 -27.151442 1930.986214 105 150 182
-477.330017 11.841960 2018.867302 64 110 142
-343.707108 -71.975863 2270.046997 72 118 152
-514.180088 -17.807391 1908.051682 152 193 218
-469.338751 14.702868 2030.723000 112 159 191
-469.338751 14.702868 2030.723000 112 159 191
-472.561121 17.666852 2024.617386 126 171 204
-469.284344 23.794231 2019.954872 91 135 168
-665.052748 1086.393452 2292.347908 99 103 104
-376.625061 -44.217250 2180.912590 76 127 160
-558.642817 145.605636 1886.225510 6 4 3
-336.272693 -36.724678 2255.296707 70 118 152
-366.714120 -35.935119 2183.978462 107 157 193
-354.827666 -32.037297 2196.202087 109 163 198
-354.827666 -32.037297 2196.202087 109 163 198
-547.621918 -54.997003 1731.413269 154 193 218
-497.435856 51.012099 1914.565468 154 198 222
-367.914009 -11.442240 2128.261948 123 172 204
-638.764858 934.108353 2132.647705 139 143 144
-481.083727 72.529453 1870.741844 147 191 219
-483.858156 77.643883 1865.402985 142 187 214
-660.792160 1127.251434 2128.322411 132 137 136
-496.911144 173.517048 1860.005569 184 190 192
-497.099161 172.129798 1858.266449 184 190 192
-300.298500 -15.667245 2145.189095 38 83 120
2.338859 -796.417379 2307.086945 87 117 138
2.338859 -796.417379 2307.086945 87 117 138
-630.179453 1098.817348 2087.891579 16 17 15
-487.273502 107.608473 1807.546616 166 213 237
-442.121935 86.635613 1870.473099 133 180 208
-701.637983 200.512767 1423.227787 93 97 98
31.983292 -789.819479 2317.199135 34 61 82
-474.414682 105.865026 1803.296089 183 227 248
-488.889885 1104.563999 2315.829086 95 100 103
-488.889885 1104.563999 2315.829086 95 100 103
-432.115078 87.001097 1865.471077 86 133 164
-479.546309 1105.238628 2318.367958 93 99 102
52.329218 -795.489931 2311.849022 76 107 128
73.538107 -779.576397 2325.956917 79 108 127
-531.951761 53.305680 1601.073265 190 221 240
-390.547323 84.891409 1868.862724 121 169 202
-426.211023 1105.747414 2319.573784 98 103 106
-379.073453 85.393763 1879.861450 141 191 221
-403.512383 1112.478542 2326.263809 84 89 92
-403.512383 1112.478542 2326.263809 84 89 92
-395.392227 1111.679363 2326.054192 78 81 85
-395.392227 1111.679363 2326.054192 78 81 85
-132.678354 -24.771811 2217.838860 102 154 190
-376.309371 1111.566734 2326.113701 85 90 93
-438.531351 144.166410 1734.646988 228 242 241
104.424179 -480.792141 2400.810432 75 110 133
-437.361765 147.429585 1734.612465 233 242 244
-476.036024 155.991769 1668.864059 120 159 184
-476.036024 155.991769 1668.864059 120 159 184
-435.020590 145.601022 1736.852455 20 25 25
-357.288527 1111.422443 2327.332497 50 55 58
-434.056711 147.657371 1730.814171 32 34 35
-428.313017 139.695036 1728.611755 30 35 34
-428.313017 139.695036 1728.611755 30 35 34
-93.746734 -23.545708 2216.188049 93 143 179
-316.097569 1116.387081 2331.392097 73 80 83
-415.035152 147.015631 1719.441223 121 165 195
-437.412071 161.189234 1675.185776 129 173 198
-498.496819 197.246027 1565.191650 155 179 197
-46.807525 -21.911110 2221.258163 108 158 194
-439.796829 170.499456 1641.324043 92 135 162
-37.622696 -22.864191 2223.588181 137 185 219
-422.930336 162.180209 1663.330841 134 178 203
-32.688916 -25.214192 2226.200676 46 94 128
-256.867623 1125.414944 2343.163872 83 92 95
213.273311 -603.601599 2383.212090 74 108 131
-434.177399 172.428679 1643.875504 92 135 162
-434.177399 172.428679 1643.875504 92 135 162
-438.871431 175.795746 1636.410332 95 138 165
-500.518131 205.331326 1547.597885 79 102 118
-121.861494 24.348205 2088.916969 100 158 194
-406.830120 162.778950 1676.964569 133 173 201
-22.668478 -24.501175 2217.455864 129 177 212
-103.296089 15.811118 2101.778412 13 59 97
-36.363310 -10.712972 2197.888565 118 171 204
-37.943327 -11.667299 2194.585609 118 171 204
-33.506855 -22.852343 2195.702171 60 108 142
-33.506855 -22.852343 2195.702171 60 108 142
400.972557 -477.216196 2688.320160 32 59 85
-497.274590 216.990161 1523.860359 146 169 186
-500.540113 216.979313 1511.293221 74 89 107
1.227335 -5.463287 2207.518196 99 152 185
1.227335 -5.463287 2207.518196 99 152 185
-432.575226 188.483918 1597.967434 135 179 203
-432.575226 188.483918 1597.967434 135 179 203
-432.102823 192.855871 1598.657799 89 129 157
-432.102823 192.855871 1598.657799 89 129 157
-492.954636 229.220963 1494.533825 103 134 157
-408.585596 190.514648 1605.164909 88 131 158
-408.585596 190.514648 1605.164909 88 131 158
-486.715412 261.986876 1511.404896 59 83 98
-419.654655 206.266856 1571.416378 100 143 170
-335.649538 165.965426 1681.302834 119 165 196
-35.802361 26.439336 2082.618332 120 177 212
-412.510872 204.789352 1574.308491 142 185 212
-422.963667 207.248402 1558.055496 151 194 221
-427.670574 207.073092 1549.396038 146 191 218
-418.748903 204.290628 1559.696007 100 143 169
-20.611753 40.137264 2097.820663 105 157 194
-20.611753 40.137264 2097.820663 105 157 194
-354.186869 176.448488 1642.428970 127 172 199
-347.958922 177.957571 1650.370598 78 121 148
-328.672385 169.715381 1672.825241 143 187 215
-328.672385 169.715381 1672.825241 143 187 215
-341.015172 176.141334 1655.422020 144 185 210
-228.011346 859.637737 2050.710487 107 116 119
2.957194 34.070191 2104.000854 95 148 181
-425.991392 220.637155 1533.486557 136 180 209
-404.643440 209.070539 1559.291172 142 186 211
-330.624080 177.950108 1656.690788 142 185 211
333.430529 -72.847235 2537.417412 215 215 212
319.167328 -80.443412 2509.211731 221 220 216
-417.620373 222.907090 1531.968307 80 124 153
-420.662117 222.870278 1524.089813 77 121 150
-418.440580 221.890903 1526.803970 128 172 201
-353.000879 200.072193 1610.491562 130 171 199
-319.029307 172.718167 1648.976517 121 165 192
-319.029307 172.718167 1648.976517 121 165 192
-422.623587 234.833145 1512.958813 111 159 187
-329.649472 185.881710 1630.142212 77 122 150
-287.045002 171.370590 1686.588860 122 169 197
-289.986873 172.783649 1675.685120 126 171 198
-279.772043 171.298063 1686.421013 118 165 193
-301.725149 177.773631 1655.731201 123 166 193
343.557358 -84.010965 2490.229034 0 0 0
75.005555 17.644791 2138.240814 80 125 158
75.005555 17.644791 2138.240814 80 125 158
390.022182 -495.867014 2403.761292 93 104 107
-414.934778 238.326859 1501.843452 84 127 154
-411.359358 236.199236 1504.074383 139 187 215
420.006227 -866.770172 2315.369225 71 77 81
-378.816128 226.061702 1542.265320 122 169 197
423.538733 -857.165241 2314.988327 41 54 60
-381.020236 224.889302 1534.759331 146 193 220
400.857830 -492.400074 2398.922920 14 23 34
427.085018 -862.419891 2309.879684 44 49 56
-296.138048 186.599481 1635.140038 123 167 196
-405.770445 240.039039 1498.669338 99 136 160
429.222822 -867.105007 2308.882332 36 41 49
-276.929617 179.752088 1657.880402 122 169 197
432.306862 -874.315357 2306.658173 98 112 125
26.369053 58.318996 2035.712242 112 157 186
26.369053 58.318996 2035.712242 112 157 186
-379.187608 228.543544 1521.457386 55 96 128
-276.426721 183.048999 1649.370575 120 165 192
445.511150 -408.080435 2455.240250 47 81 104
449.314833 -279.128170 2493.705750 52 90 114
-313.845849 207.543731 1585.902119 75 120 147
-371.781993 234.662414 1513.863373 47 88 120
471.371794 -592.135954 2391.402626 43 65 83
460.447407 -407.383013 2431.873894 35 67 88
463.131237 -420.364237 2431.323433 37 69 90
468.757010 -546.501398 2395.134735 41 63 79
461.528492 -620.581770 2362.219429 43 70 87
429.829311 -812.492371 2251.135826 42 61 82
414.251709 -825.662804 2226.108742 38 62 82
487.344694 -863.765526 2315.165710 51 70 89
-894.393253 -778.176498 398.962188 37 69 90
565.815496 -950.785923 2396.354485 49 69 87
-210.790610 171.149552 1684.384918 114 162 191
-360.264611 249.599171 1506.108570 59 87 107
406.658077 -830.347157 2204.411697 200 198 189
422.866154 -804.808044 2233.021736 131 129 125
396.389914 -829.849052 2189.240265 200 198 189
383.876610 -829.287052 2170.697594 200 198 189
432.214355 -827.206421 2213.264465 189 179 169
-307.797980 232.003641 1538.207722 65 109 138
-307.797980 232.003641 1538.207722 65 109 138
-303.700066 234.473228 1535.673237 108 155 183
-304.002905 226.785922 1532.721043 73 117 146
436.822653 -60.009247 2407.283020 93 120 133
-292.985392 229.333997 1534.732819 65 110 137
-292.985392 229.333997 1534.732819 65 110 137
-155.066657 176.719141 1691.209602 113 160 191
-179.040480 199.307799 1643.349838 77 124 152
327.319026 17.561854 2220.645523 64 105 137
-122.474086 177.375412 1693.150139 123 170 197
-122.474086 177.375412 1693.150139 123 170 197
-100.899553 1291.374874 2005.396461 107 111 112
356.070113 17.130615 2216.458130 56 95 126
-126.756525 195.860875 1669.685936 85 129 158
-126.756525 195.860875 1669.685936 85 129 158
369.670153 15.841819 2225.905800 69 78 79
374.639225 15.986115 2226.297379 70 79 83
402.350569 47.480968 2264.537430 94 141 173
381.276536 16.779107 2228.776741 63 73 81
-230.206251 235.979462 1541.708279 67 110 137
-110.984254 189.632273 1667.345619 126 171 198
510.158396 -25.844628 2356.338310 1 1 1
-107.332718 193.366480 1666.315842 77 122 149
-218.514061 239.682961 1541.582203 121 164 191
-214.353800 234.725499 1540.616894 72 117 144
-330.074763 103.122795 1368.465805 102 147 175
-124.702919 204.903007 1624.485207 125 170 197
-124.702919 204.903007 1624.485207 125 170 197
-834.737015 -751.786852 498.324394 162 167 167
-514.594793 -791.974831 843.786240 254 253 246
-86.962426 1352.207947 1884.502983 117 121 122
-115.287530 223.762274 1598.365402 141 186 213
-115.246654 224.308538 1589.239311 142 187 214
-115.246654 224.308538 1589.239311 142 187 214
614.111996 -82.742989 2337.851524 112 113 111
-145.737374 241.790462 1549.496937 78 121 148
-118.433869 246.210456 1555.412102 94 139 166
-117.757082 245.994949 1551.737213 136 181 208
-81.954449 1397.509766 1806.639671 122 127 128
-118.963087 253.028440 1536.221027 79 124 151
440.890265 72.162622 2105.448532 99 131 161
-118.209469 254.225755 1530.814552 119 164 191
-118.209469 254.225755 1530.814552 119 164 191
-108.348978 254.235816 1537.608147 82 127 154
-108.299232 256.982064 1534.670067 129 174 201
-104.598081 264.396620 1538.972187 110 153 180
560.440826 1739.170265 2541.793442 173 178 179
449.460554 81.728828 2090.960884 88 112 133
-107.161748 256.423545 1521.244907 97 139 164
438.206387 85.359156 2059.895706 89 129 161
871.459198 380.793858 2553.942871 201 208 207
310.375261 739.197254 1966.298866 141 150 150
318.302083 727.227783 1962.127876 147 155 157
315.500426 722.542524 1957.826614 147 155 157
537.691736 98.292136 2083.478355 199 204 203
334.722972 733.687067 1967.177391 5 7 6
373.612261 786.511087 1988.327026 6 7 5
458.919096 143.149996 1967.693520 105 139 158
450.329447 141.345572 1935.280418 197 206 209
513.049459 201.515341 1978.971672 83 119 141
502.826643 190.934408 1960.341835 207 212 211
109.992170 266.639090 1568.313789 74 114 139
375.244999 204.957271 1798.516846 57 64 64
386.800718 193.886876 1805.398178 62 94 118
371.803403 197.393835 1791.234398 174 181 180
388.102365 197.704887 1802.364922 162 170 169
385.938525 201.719379 1794.458771 27 32 33
383.606672 212.223148 1788.692284 110 150 177
336.232305 218.700266 1732.751274 73 117 145
456.828880 223.243308 1758.884811 197 200 200
260.914922 282.253218 1583.649158 77 117 142
272.542787 285.350180 1587.008381 79 119 144
452.918863 243.956661 1710.087395 99 128 147
1643.869019 -643.924141 2499.193573 28 27 29
443.519163 288.891172 1610.340691 136 179 202
438.056612 293.936300 1593.752003 73 113 142
454.386759 298.162842 1590.019226 65 96 121
-514.245987 -699.087381 773.563099 156 162 163
-787.648296 -742.029524 558.864737 89 82 77
1406.435585 1363.587952 2341.593933 133 138 137
-809.832764 -744.202042 280.225253 139 169 190
-1215.002537 1087.046814 2283.283806 127 129 130
-1204.866695 1082.234573 2276.723099 109 111 112
-1134.078407 1036.922169 2392.050171 100 105 107
-437.276554 -1044.513702 2227.325439 95 124 145
-790.180540 -750.389528 226.799870 88 131 162
-424.746561 -941.682339 2257.667732 80 103 123
-418.850327 -925.556469 2266.748619 82 101 116
-416.011810 -876.751232 2338.069344 51 78 99
-404.897451 -938.004208 2267.158127 135 142 147
-401.709414 -935.285187 2261.467934 50 55 58
-490.241861 -581.248903 2379.797554 53 77 96
-423.268318 -831.434345 2284.314919 78 105 125
-460.116529 -642.875242 2391.628647 82 109 129
-371.428204 -964.156532 2257.085800 92 116 134
-500.850391 -503.911304 2371.217155 39 68 87
-699.864101 -718.245506 835.103035 32 58 80
-1032.376194 1088.801289 2284.687424 110 112 112
-1019.491005 1090.689754 2287.171173 108 110 110
-506.477213 -358.386755 2412.733841 51 83 102
-503.340673 -356.219268 2410.785294 104 135 153
-436.061382 -537.619400 2362.665367 9 20 31
-479.917431 -306.403780 2486.241341 209 214 212
-346.945643 -855.617237 2286.288834 71 94 116
-346.945643 -855.617237 2286.288834 71 94 116
-307.210064 -988.508511 2238.731384 95 120 139
-421.760130 -542.214632 2361.578751 37 44 49
-594.998932 -184.904325 2089.581299 132 130 123
-651.745987 711.894941 2986.150932 21 22 20
-283.812785 -1000.010872 2242.564964 47 74 94
-336.714315 -785.071707 2297.607040 86 115 137
-794.957924 -865.019035 164.397001 87 103 115
-488.327789 -129.434657 2468.173981 136 163 176
-284.023929 -924.691486 2255.810738 43 67 87
-475.952101 -135.286045 2477.276230 2 1 1
-261.429119 -980.844212 2252.259445 96 123 141
-276.909184 -922.221088 2259.284592 88 112 132
-320.619798 -757.316208 2287.474632 81 110 131
-320.619798 -757.316208 2287.474632 81 110 131
-443.851089 -182.738888 2491.907692 2 3 1
-464.120436 -138.421893 2459.006691 218 215 211
-557.643366 -180.255973 2054.377556 158 149 144
-263.897276 -927.798653 2254.966927 43 68 88
-527.864075 -167.147207 2144.434357 181 203 220
-410.746861 -314.091778 2394.684410 210 216 212
-588.670111 -126.440215 1940.136909 235 227 217
-588.670111 -126.440215 1940.136909 235 227 217
-484.750748 -128.528595 2292.629623 103 147 176
-433.715487 -120.369709 2469.083595 92 132 159
-364.703703 -254.873681 2516.583443 204 209 208
-388.964033 -284.289289 2368.129158 204 209 208
-828.452969 1094.858837 2302.101898 172 176 177
-557.270336 -140.743124 1916.818428 219 210 203
-557.270336 -140.743124 1916.818428 219 210 203
-822.286606 1094.905949 2303.901291 178 182 182
-471.040630 -77.628589 2245.041466 102 142 170
-473.124027 -76.807469 2234.279251 149 189 217
-524.939060 -120.895505 2012.210655 166 198 219
-142.464519 -1083.322239 2229.977226 38 68 87
-448.535204 -79.946232 2226.119995 137 181 210
-776.744223 1098.865223 2302.997017 87 89 90
-613.002682 141.594124 1886.965179 23 19 20
-433.377695 -59.549445 2190.871048 112 158 189
-429.107428 -54.869723 2188.860512 151 197 229
-452.622986 -32.560188 2112.518883 117 164 192
-315.378881 44.024488 2579.645920 132 181 207
-428.591299 -36.649239 2158.984566 103 141 165
-393.855190 -69.169629 2231.776237 91 137 171
-414.555216 -35.658571 2171.821022 129 175 206
-408.850670 -43.659657 2172.226715 61 105 136
-373.505497 -69.047290 2235.911369 89 136 168
-382.706380 -75.327265 2184.013557 79 128 160
-832.188988 -800.933075 233.965039 79 81 81
-482.108498 21.640542 1967.166901 150 195 223
-502.702856 50.355786 1925.995064 154 192 215
-347.904539 -67.471552 2245.750618 92 139 171
-377.496457 -45.338383 2177.559280 75 123 157
-500.188971 54.805350 1914.079666 106 150 178
-502.767611 58.752465 1900.992393 133 176 196
-484.497166 41.612086 1936.749268 160 204 230
-484.497166 41.612086 1936.749268 160 204 230
-361.405349 -38.073239 2198.541641 67 118 151
-515.549660 78.459501 1873.376656 183 189 192
-559.592724 -114.130664 1585.774612 92 117 130
-488.370371 53.437841 1911.505508 99 146 176
-530.420303 -35.820886 1726.611519 106 149 177
-534.128714 137.121391 1852.852631 45 43 40
-386.656260 -24.732189 2117.023087 109 155 187
-501.129341 71.214998 1881.648827 150 185 204
-504.070997 72.977817 1875.145149 86 105 118
-448.180819 23.242265 1977.412415 91 137 167
-377.183914 -27.266583 2116.899681 43 85 118
-657.128239 904.670620 2078.137779 155 160 161
-656.836987 898.060799 2072.343636 155 160 161
-582.395124 -181.332958 1436.254501 92 117 130
-495.658588 74.106228 1866.427994 116 157 179
-500.817442 80.374146 1857.368469 146 180 199
-623.935318 6.272276 1382.750607 163 168 169
-493.501616 69.735879 1865.601540 161 203 226
-497.437906 81.580311 1853.610229 106 147 170
-457.552242 40.702897 1925.238800 99 145 173
-457.552242 40.702897 1925.238800 99 145 173
-526.432467 180.155301 1842.723083 166 172 171
-530.575418 164.394724 1813.977051 166 172 171
-424.151182 31.308493 1985.762787 131 176 203
-487.559652 77.097958 1851.541710 141 185 209
-487.568378 85.353094 1853.412247 159 200 223
-498.640871 89.387786 1828.240013 168 211 233
-474.148178 64.996022 1871.138573 146 189 216
-442.833328 48.898479 1934.266090 137 183 212
-465.542889 66.021276 1886.071205 144 186 213
-475.601578 76.994830 1865.349388 145 186 212
-475.601578 76.994830 1865.349388 145 186 212
-677.660513 1120.850468 2098.464203 165 167 167
-384.577942 5.021765 2025.921631 101 143 172
-467.987108 78.678632 1844.780350 137 181 207
-430.895662 62.579215 1894.902420 143 188 211
-377.014184 31.629795 1994.939041 90 134 165
-401.232910 40.450156 1932.917976 130 180 210
-588.318682 843.123913 1942.856407 100 105 106
-424.758005 64.516276 1890.315437 92 140 170
-424.758005 64.516276 1890.315437 92 140 170
-441.408730 74.578714 1855.905914 91 136 163
-430.098248 81.834310 1883.970261 96 143 172
-428.281212 74.118328 1869.421577 94 141 169
-430.492973 75.691986 1865.165520 142 184 213
-430.492973 75.691986 1865.165520 142 184 213
-424.478197 54.170138 1858.123398 103 148 180
2.999703 -796.240187 2308.909225 83 110 131
-561.837435 843.732643 2042.954254 102 107 108
-504.277134 1104.527664 2316.418839 63 68 69
41.325259 -948.901558 2271.611023 83 108 128
-715.443087 -359.164882 795.077896 163 168 169
-480.227900 1100.264835 2313.512802 100 105 106
-360.421968 51.747692 1931.114006 81 134 167
-776.802874 -736.779022 375.936770 171 167 156
-732.861567 -676.547146 521.870565 56 79 100
-242.634749 -12.974288 2114.574432 102 154 187
-374.560595 600.514126 2184.037399 109 145 167
-775.822353 -736.532307 377.819777 171 167 156
-382.462454 83.804530 1852.945328 134 182 210
-380.239844 80.256641 1854.166603 86 137 169
-364.632010 77.698731 1866.451263 135 184 210
-475.021696 157.719052 1671.677208 130 164 188
-363.946748 85.143650 1866.866875 129 178 210
-428.051567 132.397425 1751.195717 113 167 200
-354.607248 81.263149 1865.594482 86 137 170
-465.759563 158.269024 1672.146225 132 170 194
-465.759563 158.269024 1672.146225 132 170 194
-431.079626 153.463972 1739.862633 27 31 34
-426.230621 143.762684 1734.929657 28 32 34
-426.230621 143.762684 1734.929657 28 32 34
97.431558 -795.650816 2313.554764 74 101 122
97.431558 -795.650816 2313.554764 74 101 122
-398.632765 1097.714901 2311.592865 80 85 88
-454.984474 158.543289 1672.142601 134 171 197
-414.302444 138.872540 1745.355988 63 97 122
-424.395895 152.025664 1729.599380 34 38 37
-424.395895 152.025664 1729.599380 34 38 37
-377.000880 1108.472633 2322.972107 89 94 97
-174.991405 -9.108368 2127.516174 87 141 176
-138.181484 -15.585007 2161.979866 85 133 169
-444.060898 172.240579 1644.410706 98 141 168
-426.718760 165.452015 1668.761444 154 193 216
-417.844820 161.484778 1681.612396 82 128 159
-435.545254 172.191119 1651.463890 139 179 204
-433.021164 173.801172 1646.365356 96 139 168
-445.146990 180.825770 1621.198273 138 182 205
-629.290962 -279.785156 994.917774 157 183 202
-496.442223 224.459362 1535.629940 80 98 109
-434.906292 176.428318 1629.670906 103 143 170
-411.197519 160.024631 1667.779922 96 138 166
-432.621479 174.509525 1631.548119 145 186 211
-411.639309 165.088224 1667.751884 154 196 221
-445.837069 186.761582 1601.681328 93 136 163
-761.359835 -538.860464 601.547146 127 129 130
-761.359835 -538.860464 601.547146 127 129 130
-425.104427 176.680696 1634.545326 139 184 208
-424.274921 172.612715 1633.028793 105 146 171
-424.274921 172.612715 1633.028793 105 146 171
-489.397526 227.105451 1528.037548 68 103 130
-496.068621 232.875252 1509.595871 64 78 90
-407.050371 171.425247 1649.721909 150 190 215
-407.050371 171.425247 1649.721909 150 190 215
-493.551970 233.069253 1507.674503 140 160 177
-490.336704 232.565594 1512.741566 54 86 112
-492.421913 283.141923 1524.263191 55 73 86
-400.527430 178.033042 1635.944176 125 170 197
-38.000271 -29.780462 2214.191437 49 98 132
-104.038942 15.298405 2100.211334 12 62 99
-25.203541 -32.438475 2221.484566 70 117 149
-389.146471 180.575049 1643.776131 92 136 164
-419.934893 193.264782 1592.135715 163 200 221
-386.441803 176.978934 1643.890190 134 176 200
-22.197363 -27.635434 2217.682457 45 93 128
-28.882810 -18.394801 2206.168175 59 107 141
-431.801987 203.770208 1564.776707 151 194 217
-359.925795 164.465606 1678.630257 129 172 201
-373.769093 180.704522 1655.138397 92 136 163
-405.901670 195.499682 1601.842880 93 136 163
-428.910923 204.358888 1560.649490 105 149 175
-428.910923 204.358888 1560.649490 105 149 175
-429.144049 207.749701 1559.542465 156 197 220
-376.573634 177.607572 1639.519119 88 132 163
-367.603230 175.155675 1654.432869 139 179 207
-367.603230 175.155675 1654.432869 139 179 207
-422.619963 203.181124 1563.363743 147 191 214
-413.746834 216.413140 1580.924511 150 191 212
-345.290899 167.635190 1683.436966 134 178 202
-345.839477 169.378996 1673.116493 130 176 201
-366.133499 182.522297 1642.101288 132 175 202
-369.082236 180.595148 1635.103416 86 129 156
-419.775343 214.120340 1557.955647 151 192 218
-411.769676 209.853411 1560.724545 158 198 224
-399.814558 206.165934 1575.537586 142 185 208
-427.917528 222.506404 1532.021523 91 136 163
-198.828793 1096.181202 2313.189697 68 75 78
-354.304123 179.335630 1641.748047 85 129 156
-424.494743 221.553636 1530.647564 86 131 158
-434.286785 225.862670 1513.611698 123 166 193
-353.741860 176.864791 1634.218597 129 172 198
-341.506171 178.816986 1652.432060 87 131 158
-316.187167 169.968903 1686.777687 128 170 198
-427.794933 226.022315 1513.101006 122 164 193
-417.597198 223.417330 1528.715611 134 179 206
-345.771337 184.309459 1633.689308 137 176 202
-330.300379 177.692986 1656.805420 154 195 220
-405.086327 225.267577 1537.889957 132 177 204
-322.463250 180.313277 1660.697365 133 176 203
-155.498981 1109.911251 2329.602623 73 82 85
-324.569702 180.863881 1648.343277 134 177 204
-403.901052 224.914265 1529.228592 125 169 198
-403.901052 224.914265 1529.228592 125 169 198
-333.537054 188.828874 1635.087204 90 133 161
-315.820551 178.224468 1656.534576 136 176 202
344.610572 -203.488731 2619.798088 200 205 204
-321.198392 188.785863 1639.171600 140 179 205
-331.257892 200.562429 1624.096870 147 185 208
-327.835011 196.952212 1625.990486 84 129 156
-316.237831 185.665619 1640.052986 85 132 160
-316.237831 185.665619 1640.052986 85 132 160
-410.231495 244.676971 1504.521370 109 154 177
-380.558228 220.361805 1542.634106 128 176 201
292.888570 -28.774717 2567.377663 67 110 137
-3.628395 27.957514 2090.600967 91 148 183
-379.955292 226.672769 1537.069511 151 197 225
-379.955292 226.672769 1537.069511 151 197 225
354.759264 -233.857846 2580.269623 210 215 210
-272.480989 170.614338 1685.692978 112 158 186
327.627635 -249.958730 2521.005058 210 215 210
-274.159217 171.645284 1673.644638 128 174 201
-377.995539 232.802773 1523.488808 29 69 98
17.979306 31.121993 2088.186264 131 185 218
70.264983 5.982835 2158.674049 36 79 112
-252.912641 173.223257 1688.965416 112 161 187
312.206244 -89.035714 2505.640793 210 212 210
-276.548314 193.181229 1633.996773 129 173 197
-232.034850 180.857491 1692.555618 75 122 151
-228.742671 177.085245 1693.571472 123 167 194
-229.459643 179.067731 1682.847214 120 165 195
411.265802 -873.727894 2314.130783 110 118 121
373.062634 -478.789759 2388.970947 45 67 76
418.825388 -859.349155 2326.318359 22 39 53
-6.897379 1117.823696 2341.451836 72 77 80
-227.537894 188.323271 1667.913437 126 168 191
424.201870 -867.408466 2318.318558 30 35 38
430.911493 -879.975319 2323.707199 103 111 112
430.911493 -879.975319 2323.707199 103 111 112
