ply
            format ascii 1.0
            element vertex 15982
            property float x
            property float y
            property float z
            property uchar blue
            property uchar green
            property uchar red
            end_header
-91.844165 -53.238851 415.130949 76 84 91
-18.742429 -77.774662 380.087161 136 78 22
-60.273194 -66.255724 394.840813 175 170 160
-3.751891 -79.464227 376.654124 149 132 117
-25.062507 -75.535953 381.412745 237 177 96
13.741803 -81.654137 374.206638 194 178 171
-0.255612 -79.936254 375.823450 158 149 140
-6.335343 -78.443784 377.083421 205 195 183
-59.937257 -65.244484 394.130445 44 32 24
-12.353027 -76.894295 378.006148 79 57 45
-12.353027 -76.894295 378.006148 79 57 45
-2.707912 -78.024137 375.468779 222 211 197
-151.627994 162.008095 749.807692 52 87 77
-187.931538 167.090869 754.235315 14 47 32
2.832282 -78.090125 374.808002 88 68 59
-184.798896 170.993781 759.884930 15 48 33
18.253018 -79.621702 373.003817 195 183 173
-57.053900 -64.182770 392.535281 199 195 191
-12.962325 -74.972892 377.545929 214 196 184
-12.962325 -74.972892 377.545929 214 196 184
-63.347578 -61.778492 395.101357 120 115 106
-164.008021 8.781441 500.000954 94 106 109
-8.045829 -74.799299 376.114631 98 81 73
-18.836819 -72.375655 379.137897 219 123 2
-18.836819 -72.375655 379.137897 219 123 2
-3.358459 -75.211978 375.510287 219 204 189
23.761928 -78.207439 372.309875 109 92 85
-170.165217 -139.998400 210.381055 142 125 116
-6.826474 -74.462527 375.897121 211 188 152
-172.958446 33.618650 536.181021 134 154 159
-18.637036 -71.745235 378.492856 226 178 111
-244.784594 174.135292 750.663090 98 154 134
-61.417502 -59.473479 393.628049 161 155 148
-61.417502 -59.473479 393.628049 161 155 148
-6.799001 -72.796285 375.744033 155 129 98
-62.624383 -59.042835 394.102335 38 29 19
-2.565473 -73.529464 374.556398 169 159 145
-13.804036 -71.230513 377.413416 209 151 70
-60.189265 -59.323955 393.029428 144 139 132
-60.189265 -59.323955 393.029428 144 139 132
20.292577 -75.512159 372.110105 110 98 92
-20.243157 -69.398499 378.984094 196 92 0
-163.231707 13.589832 500.199413 147 171 179
-57.781440 -59.054041 391.728401 186 180 172
7.697260 -72.157305 373.571897 225 210 201
-40.733683 -63.213807 384.820724 229 164 58
-14.021400 -68.998677 376.689672 77 57 36
-60.603678 -57.052761 392.572045 178 175 165
5.649810 -71.323085 372.627068 236 216 200
23.322010 -72.746241 371.063280 175 161 152
23.322010 -72.746241 371.063280 175 161 152
-60.650790 -56.423157 391.949320 32 22 16
-16.695184 -67.200649 377.269888 80 57 33
3.704327 -70.428318 373.245072 113 79 45
-50.876015 -58.835554 388.351250 205 196 186
18.577588 -71.891761 371.195769 99 83 74
-155.234230 5.848109 482.548904 93 112 119
8.902656 -70.582348 371.818352 237 220 206
-7.980402 -67.754078 375.072694 83 57 40
-12.257717 -67.214525 375.414491 229 213 200
19.590770 -70.576835 370.971847 221 208 199
387.776518 93.749261 641.797876 224 225 224
-165.946507 26.800075 510.961819 45 55 55
-19.417076 -64.522243 377.193999 186 161 130
23.445153 -69.663620 370.256138 108 96 88
23.445153 -69.663620 370.256138 108 96 88
-21.231578 -63.554311 377.465844 199 109 2
-49.762753 -55.704480 386.995029 188 184 173
-179.967904 184.749925 747.681904 56 93 77
-210.952377 180.585027 739.538145 19 45 31
25.215656 -68.255389 369.244480 102 86 78
-94.810086 -34.005833 416.294861 83 92 101
22.898936 -67.476547 369.690299 97 79 68
33.503816 -67.502636 369.405603 100 88 76
-124.471700 187.587070 748.910284 68 97 82
-12.085441 -62.454563 374.555612 161 121 63
-185.124803 189.849162 749.362469 48 92 73
-50.896734 -52.971691 387.540865 195 192 187
20.512873 -66.000277 369.601798 234 217 206
20.512873 -66.000277 369.601798 234 217 206
-21.996093 -59.938955 377.157331 231 204 177
-4.057338 -63.116795 372.755885 221 130 1
-97.735119 -32.833454 415.303516 226 221 218
-97.768968 -32.790413 415.369272 226 221 218
2.733774 -63.645875 371.482849 234 138 0
-0.981015 -62.545842 371.835327 231 133 1
24.490426 -64.908856 368.696880 106 88 79
-16.733663 -58.772737 375.341678 227 207 196
-26.782462 -56.488144 377.982044 224 136 6
-26.782462 -56.488144 377.982044 224 136 6
-26.782462 -56.488144 377.982044 224 136 6
-55.721539 -49.202967 387.885785 49 38 33
-231.123233 190.915167 740.468454 8 21 10
9.069562 -61.948037 370.302749 251 192 94
-56.489664 -48.068964 389.130783 131 129 121
-185.200572 194.775629 747.160006 65 102 87
-147.748935 13.566914 477.978277 56 75 83
-25.282171 -55.785638 377.457523 240 178 93
-10.002694 -57.905525 373.564649 239 193 130
-13.260995 -57.436848 373.934174 244 202 148
-18.405406 -56.490231 375.114679 61 49 38
5.367665 -59.898704 370.341539 247 211 160
5.367665 -59.898704 370.341539 247 211 160
4.182163 -58.876610 371.635938 238 141 5
-144.592345 193.757927 741.494513 13 23 11
-201.298308 197.594261 744.539404 47 91 74
-243.252540 199.180913 745.561695 70 106 89
0.823329 -58.212906 370.816636 249 190 94
-163.539338 41.791633 514.590073 102 120 121
116.928041 -55.352241 376.902342 109 103 88
2.719854 -58.182573 370.610738 227 118 3
-3.903825 -56.639826 371.527052 248 196 123
-7.803141 -55.672640 372.332406 254 191 96
-130.763936 7.884081 465.901375 196 212 219
-171.289730 199.950790 742.239141 52 104 81
-79.565310 -32.496992 402.997017 196 203 206
-14.489724 -53.104478 373.772717 171 159 138
-14.489724 -53.104478 373.772717 171 159 138
-124.272788 -6.765582 439.338112 23 28 31
28.082478 -57.267952 367.417479 111 92 77
28.082478 -57.267952 367.417479 111 92 77
2.464643 -54.836696 370.278525 245 184 96
-108.215380 -15.831023 425.447416 16 14 20
-9.697926 -53.048015 372.217441 237 197 140
-119.361401 -1.804669 445.361519 196 208 216
12.986113 -54.387605 368.672967 235 136 3
16.417541 -55.039358 367.708993 252 202 132
-9.883840 -51.604778 372.038794 243 188 113
0.245420 -52.846020 370.138240 240 203 150
-35.449290 -45.927843 379.609323 207 198 189
-19.436647 -49.393886 373.954129 233 223 215
2.116505 -52.500808 369.554615 232 155 35
-188.663876 -130.507541 229.778719 198 210 212
7.966523 -52.170771 369.023204 239 145 4
20.512076 -52.543598 368.084598 237 140 7
-62.098622 -36.773527 390.224409 88 83 74
-41.489801 -42.758992 381.398368 183 171 143
6.914058 -50.966507 369.013023 250 213 166
-50.691795 -39.399365 384.708190 185 181 168
-139.386725 207.618284 737.180090 43 88 71
-42.399767 -41.009480 381.518793 209 200 187
-219.682813 207.375121 734.249449 19 54 42
10.593507 -50.118607 367.880154 229 153 29
-230.929160 210.203695 736.341953 60 104 87
-230.929160 210.203695 736.341953 60 104 87
-66.715550 -31.741714 392.993808 51 46 43
-205.338168 211.369133 734.931421 86 104 109
-42.947596 -38.541242 381.588292 196 180 164
-61.681902 -32.585835 389.775562 90 84 79
-210.468650 213.067412 736.376953 105 118 132
-42.050514 -38.338324 380.624104 182 104 3
11.100633 -47.028628 367.200804 240 146 9
30.789611 -47.857252 365.533543 111 90 76
-9.208176 -43.170834 370.366645 78 59 43
-171.510065 218.006015 734.369135 85 130 111
-181.367338 217.618704 732.231045 58 94 78
-135.135984 221.097088 733.404112 59 91 74
-38.479263 -33.372626 380.018020 235 153 8
5.921571 -41.534874 367.789054 226 133 5
-62.900025 -26.619962 389.425445 42 35 32
-174.661958 220.946479 732.671928 81 118 101
-195.466125 224.002075 737.037754 24 26 20
5.596321 -39.644930 367.663836 159 108 50
-87.053037 -10.375045 408.852053 82 97 102
-104.944217 -78.930384 316.569829 204 200 193
-55.668330 -26.325184 386.144042 183 181 176
-84.215164 -7.519037 407.587385 23 29 42
-209.702945 234.861493 732.559013 61 109 85
-2.722820 -31.829342 368.191886 161 149 139
8.257043 -32.411548 366.460133 88 77 70
12.891378 -31.834930 365.757465 97 80 73
12.891378 -31.834930 365.757465 97 80 73
8.300810 -30.635151 366.456580 98 90 83
8.300810 -30.635151 366.456580 98 90 83
11.972211 -30.800259 365.913439 211 206 198
6.206338 -30.503178 366.432977 79 64 57
7.601250 -30.008352 366.642308 202 196 191
19.552161 -30.404291 364.694548 151 142 132
19.552161 -30.404291 364.694548 151 142 132
-3.029197 -27.878314 368.115211 207 199 192
7.454056 -28.757736 366.270900 195 187 181
-49.216965 -18.827990 381.557679 200 129 50
3.478584 -28.083616 367.179394 209 204 193
3.478584 -28.083616 367.179394 209 204 193
-101.755095 7.469682 417.568779 114 59 23
-102.289188 8.593960 418.257046 123 58 13
3.255615 -27.095261 366.656327 194 185 175
-184.255958 242.658186 728.966904 19 44 30
10.297522 -27.564484 365.565085 85 74 66
10.297522 -27.564484 365.565085 85 74 66
-2.696434 -26.101848 367.658329 73 65 63
9.618187 -26.725036 366.036201 101 90 82
7.614842 -26.474595 366.075420 192 183 173
-96.445125 7.178406 413.823223 129 75 40
-203.935218 245.477915 730.114412 26 53 38
6.622613 -25.154823 366.898203 109 97 85
5.792660 -25.535944 366.342115 161 151 141
5.792660 -25.535944 366.342115 161 151 141
0.514324 -24.109027 366.935873 81 72 63
10.421702 -23.936640 365.661287 85 76 70
-136.464524 245.613766 722.751570 63 92 76
-218.256092 239.706016 718.192005 100 136 119
-218.256092 239.706016 718.192005 100 136 119
-212.824965 241.861558 717.697668 6 32 18
25.550410 -22.263870 363.981700 188 184 178
-98.061609 12.507823 415.127897 168 156 144
-116.864645 27.194741 434.954739 160 170 174
-111.476171 23.989390 430.247736 160 177 181
13.449225 -21.481895 364.975286 88 81 72
-179.368973 247.233462 719.002199 86 131 113
-5.230188 -18.815461 367.972493 57 46 35
14.656396 -20.071538 364.981842 215 205 197
-115.190876 28.508452 434.287643 91 52 28
-122.234607 35.429490 442.941618 87 41 7
-122.234607 35.429490 442.941618 87 41 7
-122.244453 35.424417 442.925882 87 41 7
-91.523135 11.866844 410.987234 180 182 178
4.881944 -18.577735 366.394162 148 139 130
-5.864026 -17.598799 368.089175 209 205 191
-90.324008 11.261344 409.626913 125 80 46
-90.324008 11.261344 409.626913 125 80 46
-12.392608 -17.160587 368.934727 205 193 176
-97.209918 15.889895 415.123940 124 53 6
-97.209918 15.889895 415.123940 124 53 6
-91.120654 12.990353 410.496235 132 87 56
-91.658819 13.439243 410.666180 183 168 153
-17.840448 -14.107713 370.997763 212 123 8
-112.778914 29.750380 431.200075 137 157 168
-99.885178 20.629197 418.792105 166 167 161
-90.682882 14.944991 410.295725 119 56 12
-98.846889 20.889346 417.821980 74 55 21
-88.866556 15.849344 409.963751 181 181 181
-93.685114 19.175607 413.212299 129 65 20
-22.401300 -10.118389 371.727443 219 208 198
-37.060282 -6.301854 376.644206 213 202 180
-136.722708 256.533647 711.472797 73 112 96
-99.876267 25.600260 419.510078 154 149 138
-99.876267 25.600260 419.510078 154 149 138
-102.560365 27.859962 421.785641 83 49 22
-0.602883 -9.923868 367.735624 47 37 28
1.636344 -10.513334 366.707206 71 55 43
-189.570594 255.789995 711.931849 12 26 10
-28.418595 -5.809039 373.781419 144 136 130
0.668590 -8.936875 367.207456 225 213 205
-117.462873 45.796293 443.347979 111 136 146
-97.390491 26.017103 416.450691 71 45 20
1.423772 -6.731609 367.460442 230 221 213
1.049646 3.627321 374.956441 83 74 65
-98.709357 29.325542 419.052744 90 59 34
-168.411219 259.961963 707.534933 60 105 83
-83.989590 21.464993 407.192230 102 66 41
0.412233 -5.319007 367.651463 36 29 19
17.133059 -5.920990 364.381385 97 78 67
-24.210079 1.413437 373.728991 186 185 178
-195.175922 271.175647 715.541458 9 35 15
-154.736078 272.167969 712.279177 34 36 27
18.483703 -0.736656 366.177511 84 71 63
1.657803 0.304041 368.097353 47 35 27
-78.860998 25.747678 405.075502 188 192 190
18.760940 0.305396 365.429020 218 219 213
-82.979405 29.627153 408.204031 111 68 30
-82.979405 29.627153 408.204031 111 68 30
-168.295407 269.126701 704.260874 68 103 86
-26.051849 6.016409 374.371386 194 196 193
-83.601207 31.216693 408.990097 159 123 90
-114.478338 70.152885 453.330183 111 132 135
-91.833955 44.602928 419.932365 164 170 170
-92.126125 44.072601 418.945217 164 170 170
-106.777847 57.996374 436.712503 91 40 5
-106.777847 57.996374 436.712503 91 40 5
-115.068603 74.113280 456.128025 72 47 23
4.641886 10.409342 368.526959 179 173 164
-74.754781 34.094906 403.674841 133 62 14
-51.035798 27.313828 393.350673 84 97 100
-104.150116 60.498506 437.027740 108 127 133
-113.437092 74.648023 454.295206 111 106 98
76.274371 16.393685 366.969752 215 199 190
-101.963019 280.999327 695.329905 13 40 24
-104.388893 66.780531 441.708469 94 44 7
-70.269245 36.501396 402.685022 141 69 15
-70.269245 36.501396 402.685022 141 69 15
-107.982552 284.668493 695.579815 17 27 14
-103.356552 65.476638 438.655996 110 133 140
-176.593769 283.752131 699.226713 79 118 100
-73.084593 40.521133 405.334616 126 52 8
-72.401816 41.608441 404.602957 178 175 166
-146.563709 286.900330 696.087599 29 33 22
-77.991110 49.116629 412.774706 142 144 131
87.566173 28.313580 370.465422 69 62 49
-132.640076 289.562273 694.292259 59 91 72
89.528567 30.404234 370.876694 210 204 191
89.528567 30.404234 370.876694 210 204 191
-63.894272 44.326794 401.934671 127 55 5
-69.771630 47.635388 406.232357 173 152 141
0.157309 25.511065 372.886086 50 45 40
-93.254179 70.001674 432.105780 148 157 156
-107.212722 84.330630 448.583889 137 165 166
4.902140 25.100553 369.138074 188 187 183
-65.614539 48.941904 403.327417 177 181 174
-92.882013 74.783182 434.953737 86 53 23
-123.148406 301.510501 694.003391 28 32 20
-63.322502 51.238531 403.517389 126 53 6
12.750301 31.486315 372.528458 90 83 76
12.750301 31.486315 372.528458 90 83 76
-135.248852 300.296116 691.497564 81 124 97
-56.999153 49.679974 400.164318 128 62 17
4.926375 33.664536 374.621916 59 46 31
-95.467877 301.812792 686.768389 20 52 35
-58.603692 52.019215 401.851749 132 53 11
2.296021 36.107132 375.455880 160 158 152
-0.600072 37.977949 376.460695 68 60 51
17.657474 34.113017 368.924832 55 48 39
-107.600594 303.067613 682.857656 8 19 5
-86.003709 311.744356 679.432535 84 107 84
-86.003709 311.744356 679.432535 84 107 84
-111.772823 315.618658 683.852482 71 99 84
-147.864842 313.711977 681.446218 7 41 23
-154.367435 317.955518 685.299349 67 105 86
-131.158900 319.156146 681.222057 25 64 46
-7.307401 322.078562 667.152500 16 30 17
-7.307401 322.078562 667.152500 16 30 17
-112.269568 323.555899 678.796768 81 111 91
-153.357387 322.225499 679.903889 4 27 8
-153.357387 322.225499 679.903889 4 27 8
-160.100889 320.593953 675.891018 70 116 94
-48.491398 324.784160 661.320639 22 50 31
-143.236911 328.578019 676.597881 7 49 32
-67.712653 334.661412 664.982986 27 57 38
-161.760449 330.702186 672.092199 113 149 125
-103.799760 334.959936 667.877483 59 101 82
22.655824 341.904974 652.692604 92 122 97
-113.783348 340.827441 669.313431 4 40 22
-52.907759 342.331100 657.834911 25 48 33
-74.754202 347.266698 660.704231 31 62 41
-146.757483 351.376510 666.047144 105 157 127
-146.757483 351.376510 666.047144 105 157 127
-122.228158 352.415156 660.153532 120 146 183
79.077291 373.064494 630.700827 9 31 13
-69.128329 375.736356 656.814003 73 121 97
-129.004502 367.488599 656.034946 99 149 125
102.591360 376.193166 622.558689 22 29 14
102.591360 376.193166 622.558689 22 29 14
-154.507279 365.272141 653.483725 19 25 14
114.310586 379.422355 616.289711 94 131 105
-122.687435 373.838782 650.201464 97 149 126
-127.874935 376.402617 647.717524 9 58 36
30.004799 386.668253 625.844193 10 37 17
-151.077759 374.804926 645.478201 14 22 19
2.025750 399.275136 626.665735 85 126 98
2.025750 399.275136 626.665735 85 126 98
-32.274643 410.299253 623.608875 54 101 78
-67.812866 409.183741 626.327467 85 130 104
-115.935564 406.706476 628.077936 23 48 30
-111.416304 425.965071 610.788345 37 53 40
-99.990660 -169.697094 738.721609 126 129 133
-185.268593 -99.982983 902.978516 43 82 66
-211.013651 -69.437671 886.590958 31 37 32
-217.274904 -63.492912 885.777378 41 65 53
-215.425920 -63.072425 886.414719 98 130 112
-220.412111 -57.495844 873.376846 97 137 119
-232.316971 -48.992234 874.971485 37 85 67
-205.781364 -62.223136 881.024170 35 37 32
-214.689398 -51.166791 876.963902 97 122 109
-226.477885 -40.201998 869.060135 86 124 107
-242.149806 -28.381348 864.324951 19 41 33
-242.149806 -28.381348 864.324951 19 41 33
-247.928095 -25.120178 861.793995 21 55 41
-264.203906 -15.426281 859.182358 18 50 40
-222.127318 -38.950866 868.207359 89 127 109
-201.868224 -49.178094 881.713676 28 37 30
-208.095956 -46.663401 861.707878 32 44 36
-225.193501 -35.814166 862.288380 97 134 118
-212.096977 -41.433218 869.797516 59 99 82
-11.977650 -143.576741 1045.767021 46 42 42
-18.139546 -140.144038 1019.448948 46 42 42
-281.738305 1.604787 846.522903 93 140 122
-279.335451 2.435693 849.068451 18 54 38
-221.898961 -29.626492 857.710838 18 52 36
-273.524427 1.828098 848.709297 55 99 82
-237.078404 -18.412307 856.427097 9 20 10
-145.255601 -121.460569 511.064863 63 63 62
-126.870525 -135.030127 487.196732 171 191 199
-125.005138 -134.217715 483.031845 103 112 121
-125.005138 -134.217715 483.031845 103 112 121
-294.133902 20.596310 842.124653 24 60 44
-273.470521 9.533022 845.080471 78 122 105
-273.449898 9.522440 844.741726 78 122 105
-309.299374 29.578847 833.520412 72 80 72
-283.066821 17.938221 838.991165 10 35 21
-290.343785 23.909318 841.817665 109 154 137
-243.807316 -2.091249 851.691628 83 116 101
-309.030175 33.960944 832.257366 1 11 1
-116.192198 -137.135661 473.421574 152 165 171
-301.221967 28.867796 827.590084 107 146 130
-239.451408 -3.366521 854.578876 73 105 91
-65.278625 -115.100896 819.807625 46 42 42
-221.172404 -12.151834 854.917622 10 33 24
-315.955138 41.344380 833.447933 65 101 87
-310.368657 37.792793 830.509949 52 82 69
-96.690482 -148.171926 462.393713 137 152 161
-249.401021 4.673388 846.900845 92 128 114
-234.925365 -2.035528 853.756809 3 33 19
-234.925365 -2.035528 853.756809 3 33 19
-127.080643 -126.526785 481.636286 137 139 137
-143.042266 -114.857912 494.710445 54 56 56
-226.698971 -6.311587 855.939770 34 70 69
-295.167637 31.452918 832.199669 101 134 120
-143.254483 -113.794208 494.660664 65 67 68
-294.028020 31.710356 826.673412 94 129 115
-314.189577 45.699716 834.738064 33 69 55
-157.410371 -99.837875 515.144110 138 147 149
-283.666587 29.018706 835.531616 69 108 92
-294.116092 34.920079 826.226425 57 90 76
-277.155900 26.827207 836.212254 19 63 44
-125.742996 -124.325991 472.848272 41 42 39
-142.805243 -111.229205 490.087128 169 174 176
-142.805243 -111.229205 490.087128 169 174 176
-128.721464 -121.650779 475.502920 42 39 32
-222.872710 -0.506988 852.400875 100 126 119
-270.762038 25.138304 837.657642 52 94 79
-142.030478 -111.233366 488.744688 72 77 80
-303.015208 42.593557 828.138161 0 15 3
-121.821463 -125.786245 468.589067 204 213 222
-124.814594 -123.398268 471.349049 51 52 48
-123.126423 -124.637890 469.068956 34 36 36
-141.878879 -109.223008 487.534237 43 46 46
-142.728722 -108.232307 488.275003 187 195 203
-271.567655 29.445085 833.064175 110 155 137
-311.079836 50.448960 821.422195 42 76 60
-291.207433 40.321410 825.232315 1 25 11
-250.080705 20.605597 845.703793 8 22 11
-131.049979 -116.376114 474.849415 210 154 66
-314.214230 55.323982 819.743061 4 29 13
-299.780035 47.479990 821.531200 17 52 39
-298.385930 47.048587 821.556377 78 120 103
-213.036847 2.624539 847.680283 77 81 76
-296.418905 46.957797 820.931530 85 127 110
-204.179239 -1.806604 845.325661 21 56 40
-276.043630 38.317493 832.592297 60 79 68
-301.806831 51.199317 820.112038 96 136 120
-311.104035 56.750017 819.664097 93 127 110
-311.104035 56.750017 819.664097 93 127 110
-118.487716 -122.722256 462.778425 202 216 221
-152.646017 -96.573228 495.775366 100 106 105
-305.726790 55.915004 819.647884 94 127 113
-299.023890 52.633387 820.108700 19 53 38
-308.092833 57.189834 816.209030 21 53 36
-274.429703 40.494829 828.238773 9 31 17
-234.333253 21.074833 834.778309 75 105 92
-260.835075 36.983478 836.719894 112 138 130
-220.401239 14.714308 839.393234 21 52 37
-216.765261 14.058781 840.268517 86 119 104
-151.077378 -93.591607 490.388012 43 44 42
-284.624195 51.295823 828.418732 5 40 26
-224.083948 18.828152 840.626717 0 12 2
-223.552036 18.158442 835.316467 0 12 2
-212.765551 14.146392 841.306019 19 36 24
-212.765551 14.146392 841.306019 19 36 24
-248.369503 34.575909 835.732460 17 63 46
-201.354456 9.108071 838.764477 105 149 134
-274.935651 49.714035 825.361729 13 56 39
-242.512631 33.406582 835.282135 71 110 93
-153.459811 -88.445091 492.839766 187 136 93
-290.897179 56.844395 813.131428 117 155 129
-290.897179 56.844395 813.131428 117 155 129
-276.021433 52.911240 823.058605 85 125 103
-205.300546 19.018678 843.024635 16 44 31
-165.525031 -72.860581 514.890909 171 136 72
-146.572268 -90.831661 481.503391 193 121 30
-288.550496 62.570769 814.863205 63 112 90
-295.665169 67.890447 816.673660 9 30 18
-87.135804 -131.226146 440.883493 162 178 188
-222.390628 36.468607 840.398788 59 100 85
-287.761068 69.228011 817.992783 26 41 39
-287.761068 69.228011 817.992783 26 41 39
-216.463113 32.972825 822.848320 58 102 89
-216.463113 32.972825 822.848320 58 102 89
-95.780319 -9.081627 932.701302 129 138 142
-291.094899 74.800944 815.207863 18 45 37
-276.088715 66.632050 813.338661 26 42 29
-288.041472 76.377714 816.279793 93 135 112
-279.927230 72.231781 816.121483 1 21 9
-123.169875 -101.429999 452.538490 210 211 208
-123.169875 -101.429999 452.538490 210 211 208
-124.505174 -99.816477 453.682089 190 196 194
-258.423328 62.652165 819.665813 112 159 141
-270.108223 71.638364 816.491032 22 64 46
-221.648765 48.386452 827.416039 13 29 18
-145.690441 -79.359174 470.821285 185 197 203
58.338493 -189.603269 477.552652 107 113 120
-294.618177 89.428300 804.884243 20 49 38
-290.511513 86.781424 800.935459 125 150 136
85.731709 -207.123160 460.042953 234 227 226
-120.806062 -96.260852 446.488285 141 148 146
-146.541286 -75.275999 471.690321 186 197 203
-211.811543 52.147496 826.800537 16 34 21
-241.595793 65.115422 813.216400 17 41 31
-123.405480 -93.575674 448.391914 192 200 203
-123.405480 -93.575674 448.391914 192 200 203
-285.383177 86.933643 802.367973 35 41 34
-136.569631 -69.635630 480.884123 155 163 165
56.084520 -183.842015 474.036932 172 185 193
-110.423934 -102.567601 437.319899 200 207 213
-275.920892 84.174407 805.411434 18 55 39
-110.557020 -102.467752 436.745453 200 207 213
-280.018711 87.107188 802.656269 84 127 112
-123.856068 -91.546321 447.631788 152 157 157
-128.169191 -87.969041 451.598501 24 24 25
-111.363900 -100.680530 438.306332 49 44 39
43.649369 -66.436106 802.397346 197 207 214
-284.940720 90.499759 795.896769 88 140 120
-163.149393 -55.274093 496.705627 138 148 148
-206.110001 56.638104 825.878048 6 14 4
-161.694789 -55.974007 494.066620 157 158 152
-151.321995 -66.320425 476.212740 144 101 23
-280.560160 90.835446 798.174572 16 30 19
-146.523321 -70.029181 470.282745 39 31 13
-136.925673 -78.511322 457.922745 192 106 0
-239.266181 72.264147 809.763050 102 151 131
-136.271298 -61.410588 525.099993 203 210 213
-150.362086 -66.244698 473.947954 36 35 25
-162.870622 -77.044117 384.610295 181 208 215
-209.704328 60.065418 814.670563 20 56 42
-261.580205 88.212007 814.188099 85 128 111
-255.905962 85.853595 814.390373 4 46 31
-151.487064 -63.115144 475.078964 42 36 20
-159.237206 -54.883593 487.563658 165 165 156
-216.632891 66.890234 811.937428 90 126 110
-216.632891 66.890234 811.937428 90 126 110
-259.555054 90.850759 812.902927 16 49 35
-80.956095 -114.404058 422.644281 239 243 248
-273.541379 96.806729 803.211784 4 28 13
-273.541379 96.806729 803.211784 4 28 13
-150.989997 -61.127239 473.459768 182 196 200
-160.103142 -51.877588 488.481045 136 148 150
22.395243 -168.549967 422.519350 240 242 243
-238.396645 83.737099 807.703590 4 36 23
-111.924708 -91.012567 431.715775 159 156 152
-213.146114 73.242211 809.108448 60 100 84
-222.779274 79.158092 810.951042 95 143 125
-229.393578 82.882440 811.115265 27 43 33
-125.000262 -79.286915 443.028259 31 29 23
-111.188757 -89.566344 432.282448 129 124 121
-154.222703 -53.093898 477.561760 156 170 169
-122.368479 -80.542308 441.051102 33 30 32
-285.643411 111.709142 796.323109 14 49 35
-96.704686 -77.430332 491.765690 199 203 208
-150.738573 -53.742009 470.757341 165 158 152
-264.488220 104.123545 791.831827 68 108 90
-131.910098 -69.963312 448.325777 228 150 11
-265.335512 106.610572 797.826052 53 93 75
-59.409976 -118.694365 413.683224 179 184 185
-211.649489 82.338411 807.615280 17 58 43
-160.883307 -41.264001 487.766361 29 33 28
-120.268273 -78.059900 437.299538 135 132 129
-220.779681 85.844618 797.768641 89 143 126
-268.802404 109.465218 791.198206 29 68 52
-126.162946 -72.874385 442.197561 210 213 218
-126.162946 -72.874385 442.197561 210 213 218
-279.347420 117.293978 791.575480 93 133 115
-60.883039 -114.746034 413.653898 219 225 230
-222.447991 90.366685 798.195839 29 76 58
-213.792491 88.402772 800.271988 4 16 4
-213.792491 88.402772 800.271988 4 16 4
-126.680243 -69.787455 441.880941 203 210 213
-126.680243 -69.787455 441.880941 203 210 213
-269.895220 114.342427 787.612295 85 132 113
-144.675779 -54.130661 460.865259 181 126 40
-144.675779 -54.130661 460.865259 181 126 40
0.808249 -53.191555 708.227348 96 91 88
-279.426527 121.578670 788.305855 6 41 27
-279.426527 121.578670 788.305855 6 41 27
-148.581600 -48.849952 465.842533 122 126 120
-198.829651 87.600136 810.558319 17 38 26
-112.553620 -78.989184 429.555225 188 192 198
-248.572373 109.954917 798.346949 102 141 126
-248.572373 109.954917 798.346949 102 141 126
-104.324234 -84.598714 424.076700 132 128 127
19.227976 -152.795899 410.582161 95 99 103
-103.894639 -84.114629 424.056101 118 115 114
-120.836258 -70.664805 436.112642 171 175 176
-120.836258 -70.664805 436.112642 171 175 176
-111.279809 -77.129769 428.487349 54 47 46
-85.416085 -94.959682 414.913177 228 227 229
-128.286874 -63.377690 441.827250 184 190 187
74.689382 -173.925042 425.232649 230 217 204
-109.249592 -77.742505 426.954508 218 223 225
-240.243578 111.110282 792.597771 60 103 86
-277.269793 127.497029 783.806658 106 132 179
-187.607610 88.343769 805.782509 24 60 48
-270.746422 126.546359 788.567019 70 104 89
-127.422500 -62.336594 440.525341 34 28 30
-208.743811 98.516893 794.492960 52 102 84
-254.943728 121.131372 787.204361 13 44 29
-120.483601 -66.055363 434.285498 131 136 138
-129.155612 -58.847570 441.924381 115 114 101
-134.127283 -54.072577 447.906971 220 158 45
-268.380642 129.931629 786.343384 24 55 40
-123.645878 -62.693894 436.458063 174 179 180
-196.641243 94.113171 788.071060 84 132 118
-106.443048 -75.787294 423.729610 51 44 44
-105.685902 -76.448417 422.791767 199 203 208
-118.296123 -66.347462 432.289314 127 128 127
-118.296123 -66.347462 432.289314 127 128 127
80.643106 -170.824540 423.062420 221 198 174
-121.192968 -63.417357 433.932877 122 123 127
-123.692334 -61.379063 435.945845 42 38 37
-225.552392 113.920093 794.464493 48 93 75
-111.601901 -70.571822 426.642227 90 85 83
-14.832434 -128.746903 400.494957 250 253 255
-125.330162 -59.434849 437.442589 170 174 176
-199.695385 101.864934 794.823360 21 65 48
-250.659347 126.154935 789.726114 80 119 103
-119.353700 -64.168364 432.065582 150 153 154
-123.941422 -59.905201 436.222553 148 154 157
-50.461018 -122.178423 356.288338 223 229 230
-127.191877 -57.091522 438.542938 37 32 31
17.632550 -142.624366 404.767466 206 212 217
-188.286245 94.745284 785.864067 26 55 42
-232.788467 119.579935 791.537237 62 114 96
-122.353160 -60.458732 434.824753 127 128 131
-140.950656 -43.890253 454.433537 198 139 27
-125.603569 -57.496256 437.057400 51 51 51
14.842770 -140.535569 403.804779 62 63 68
16.578098 -141.116595 404.041815 197 202 207
16.465804 -141.078973 403.769016 197 202 207
-116.910243 -99.898386 329.143143 170 188 197
-265.841246 136.286330 784.819651 24 41 29
-178.641915 96.237189 795.871878 9 34 24
-117.377913 -72.892594 401.963902 53 47 42
-101.893139 -73.707527 418.099833 51 44 41
-114.500284 -63.961065 426.753139 59 53 53
-130.021548 -50.744981 441.138458 131 129 120
-182.183087 98.209602 782.613707 66 107 92
-250.749183 134.414506 786.341476 90 131 114
-187.669289 101.381612 783.337879 58 97 82
-257.282996 136.261141 781.727314 82 124 106
-166.259682 -11.327764 497.690153 15 22 16
-88.715464 -79.954296 414.508677 221 217 214
-225.033808 121.106315 780.552912 73 126 109
12.129124 -135.115314 401.150608 136 140 141
-250.188303 136.070287 784.525728 95 137 120
-122.323895 -54.713339 433.397484 29 26 21
-250.844169 138.289726 785.942745 57 99 82
-157.678914 -19.203319 480.059481 161 180 187
-222.726941 122.482347 779.009151 78 130 113
-154.169679 -23.086204 473.357153 156 174 180
-181.024432 105.879736 789.398432 1 20 8
-96.167010 -73.498642 414.742613 166 165 169
-154.283917 -23.132642 472.159719 156 174 180
-101.809525 -69.220424 417.331553 58 51 51
-101.815629 -69.224817 417.257500 58 51 51
-102.843428 -67.589492 418.547916 98 92 88
-172.244060 4.389779 519.565725 105 114 115
-172.244060 4.389779 519.565725 105 114 115
-151.634586 -24.577107 468.645525 169 187 193
-133.654952 -42.474261 443.858671 45 32 2
-124.501061 -49.580210 433.906412 30 23 16
-83.924156 -79.058200 408.941603 202 209 212
-107.972193 -62.269735 421.689939 47 42 39
-177.333355 110.995829 790.730810 64 98 84
-95.767665 -70.458722 414.206171 224 225 229
-19.166638 -116.524744 393.041372 158 162 166
-97.935534 -68.833905 415.395498 124 119 118
-220.032382 127.462876 777.045393 85 129 115
-114.284945 -56.382012 425.728655 40 37 33
-77.911496 -83.096617 402.176619 219 225 230
-87.551469 -75.294322 410.338783 44 36 37
12.775393 -129.904783 397.000599 251 253 254
-93.305784 -71.579790 411.552715 207 209 213
-254.736757 149.031055 780.241108 59 87 72
-90.553898 -71.624970 412.821293 214 212 214
-95.669538 -68.230742 413.279295 210 213 217
-175.117195 115.692735 792.002964 8 32 18
68.381691 -150.311065 409.006596 230 228 226
-104.883015 -60.269284 418.385601 58 56 52
-253.284717 150.719297 775.710106 20 40 29
-248.230672 147.797227 773.763800 14 41 25
-85.009241 -73.670489 407.875204 61 59 60
-17.731069 -113.666654 390.103650 240 238 240
-103.546631 -60.747385 417.411661 49 44 41
-260.739970 154.550171 774.322462 17 57 42
-102.881551 -61.232084 416.695786 54 47 44
-229.740477 140.674353 775.938368 73 119 101
-18.282275 -112.288308 390.793967 139 139 144
-98.483151 -63.393337 414.728451 207 206 210
-20.122784 -110.191047 391.255140 234 233 235
-102.870595 -59.586543 416.525364 51 47 44
61.605942 -144.976962 401.621246 227 224 222
-90.038043 -66.247499 412.113428 192 202 209
58.811742 -142.878997 400.523281 151 144 140
-151.163638 -11.703978 474.228334 168 193 203
-16.179708 -110.358262 389.485717 225 227 229
-105.869150 -54.465169 418.402004 192 198 202
-95.261395 -61.820447 411.175442 213 211 213
-95.261395 -61.820447 411.175442 213 211 213
-183.723569 129.978824 782.617474 3 13 2
-57.872838 -85.453427 395.871949 182 185 189
-52.277297 -87.717354 394.167709 222 227 230
-55.426890 -85.802257 394.781065 232 237 239
-46.526244 -91.100860 392.264032 200 204 207
-59.764665 -82.820100 395.908737 59 52 53
-167.435789 14.901771 507.101583 72 84 78
-228.235745 152.365553 771.956921 3 26 8
-228.235745 152.365553 771.956921 3 26 8
-97.304219 -56.696790 412.988853 56 47 49
-15.091999 -106.786513 387.137151 245 245 245
-240.578675 158.565676 768.667459 92 141 119
-251.306105 162.704277 765.933371 101 153 130
-190.946877 138.153815 776.654148 65 79 73
-244.073868 160.674000 768.174696 86 124 106
64.402825 -139.611769 398.252702 234 231 230
64.402825 -139.611769 398.252702 234 231 230
68.173647 -140.678656 399.827766 235 231 230
68.173647 -140.678656 399.827766 235 231 230
-89.332020 -60.988706 408.333206 90 90 88
-90.880758 -58.879894 410.093212 204 210 215
-23.379697 -100.494897 387.476015 223 223 223
-71.697521 -72.252440 399.046063 86 82 77
-52.454352 -83.719492 393.127203 144 137 132
67.103863 -138.805294 398.491788 220 216 214
40.159482 -129.808617 389.041853 245 246 245
-173.854089 135.452688 780.739594 6 30 16
-173.886955 135.287642 780.008793 6 30 16
-90.066487 -58.648962 408.977175 53 46 45
-226.112437 159.094596 775.246620 7 34 18
-179.090595 135.883510 771.568727 46 88 71
-21.856458 -99.826586 386.434221 223 225 225
-50.222474 -83.646399 392.139721 65 53 48
-53.471226 -80.974215 393.061256 212 210 206
-58.998430 -77.458054 394.520068 75 63 57
-18.100196 -100.495636 386.004257 229 227 229
-61.958379 -75.142503 395.392895 128 122 117
-60.847104 -75.674903 394.976830 126 121 116
-60.847104 -75.674903 394.976830 126 121 116
-249.843097 168.480170 759.311962 18 49 34
-88.650095 -56.908226 407.569551 173 177 181
-232.757521 162.541354 763.080931 96 138 121
-61.877871 -74.085760 395.241642 78 68 64
-217.603302 159.877670 770.708323 9 45 28
-55.397123 -77.799684 393.008780 190 194 188
-55.397123 -77.799684 393.008780 190 194 188
-15.617076 -99.644327 385.185623 101 86 78
-15.617076 -99.644327 385.185623 101 86 78
-46.199349 -82.844925 390.089726 58 46 41
-192.869735 150.870633 773.424292 2 39 24
-24.907891 -94.274151 386.024094 222 162 67
-8.042282 -102.842498 383.889604 114 104 98
-30.558032 -90.547895 386.857295 224 141 10
-161.231971 21.449848 503.263855 143 171 178
-21.158533 -95.355052 385.099220 224 213 212
-242.009830 171.777213 762.449360 24 56 45
-5.820289 -102.873719 383.593535 205 214 216
-5.820289 -102.873719 383.593535 205 214 216
-17.304103 -96.442211 384.759617 202 197 193
-26.772943 -91.678649 385.268426 226 143 2
-213.812995 163.672566 770.929003 67 104 90
72.918171 -133.534873 396.305585 203 197 192
72.918171 -133.534873 396.305585 203 197 192
68.197101 -132.147515 394.208622 196 191 188
-13.164994 -98.166794 383.716273 212 201 193
-56.259084 -73.899871 392.484546 64 54 50
-2.403826 -103.302181 383.009219 232 236 235
-27.800551 -89.859706 385.392356 216 149 44
-8.798534 -99.557662 383.111072 98 87 80
-248.813033 176.286161 755.973673 33 81 61
-30.728301 -87.529474 385.697055 232 135 1
-30.728301 -87.529474 385.697055 232 135 1
-50.913060 -75.875676 390.483570 63 51 46
-241.907167 176.489675 761.342955 37 70 59
3.169492 -104.256344 382.795191 238 237 236
-22.835955 -91.209662 384.597087 105 74 54
-22.835955 -91.209662 384.597087 105 74 54
-16.438393 -94.438452 383.734536 221 217 215
-245.221257 177.004135 756.827164 102 152 132
-245.221257 177.004135 756.827164 102 152 132
47.510859 -122.531962 387.603402 147 131 123
-9.601542 -97.453195 383.043957 97 86 78
-9.601542 -97.453195 383.043957 97 86 78
-164.594281 30.452096 508.217049 20 31 28
-1.576654 -101.547432 382.021427 114 98 91
-30.296606 -86.507380 385.218692 245 173 69
-12.364265 -95.661509 382.991219 187 183 182
-28.569782 -87.123626 385.117602 238 199 140
-224.048781 171.288002 760.960817 74 120 103
-31.580150 -85.186142 385.298300 241 171 74
-27.219450 -87.420100 384.776449 223 136 2
-9.519926 -96.473086 382.441211 101 88 80
74.251956 -130.182123 394.153738 149 139 132
60.312706 -123.889470 393.362713 147 132 123
9.282863 -105.073857 382.143235 228 228 228
107.155287 -139.716613 406.700087 140 132 117
-32.521111 -84.004563 385.485077 243 180 85
-32.521111 -84.004563 385.485077 243 180 85
-15.736960 -92.546785 382.977414 199 198 193
-201.122737 163.108671 761.578941 69 105 91
29.544374 -112.826455 384.288692 229 233 234
101.444495 -137.580538 403.780127 241 236 233
95.638889 -135.829771 401.398563 157 154 145
-21.601646 -88.957018 383.453250 215 178 106
-34.490237 -81.813067 385.705423 248 174 78
-97.116351 -39.866579 413.740540 207 211 210
-59.648383 -66.731495 392.688012 208 208 204
2.653766 -100.424218 381.384611 194 187 182
-7.517200 -95.149183 381.702971 152 141 134
-197.950363 163.195550 758.920908 56 94 79
-28.751415 -84.009659 384.288144 243 168 46
-62.175727 -64.265841 393.499422 136 131 127
25.638601 -109.445786 383.389831 134 122 117
97.865987 -134.728158 401.360655 240 236 234
-26.356283 -85.117066 383.564687 243 195 117
89.369375 -132.190800 397.785997 156 147 141
29.477018 -110.873234 383.566642 144 134 128
-8.961731 -93.791980 381.889439 94 83 78
-11.754810 -92.396414 381.927776 89 72 65
84.332609 -130.381060 395.998120 153 145 137
-19.179823 -88.493443 382.900333 204 204 200
-23.089397 -86.465538 383.233261 235 199 143
-23.089397 -86.465538 383.233261 235 199 143
-15.275039 -90.569454 382.158375 196 198 189
-21.789956 -86.956125 383.178663 190 148 66
-84.047782 -48.888159 403.404951 182 184 189
-83.398873 -49.295485 402.971029 51 42 44
-9.145150 -92.786598 381.481290 174 169 164
-19.730271 -87.410527 382.363987 70 59 51
-24.276416 -91.166031 369.177628 85 61 57
-60.275537 -63.742101 392.272854 84 80 75
-18.756698 -87.492591 382.159758 88 78 78
-18.756698 -87.492591 382.159758 88 78 78
-52.911156 -67.944777 390.094352 217 214 213
-38.737768 -75.846493 386.086130 247 170 48
95.930463 -131.897271 398.876119 158 153 147
-57.472473 -64.490324 391.470504 200 199 195
-82.370192 -47.431406 402.537394 183 188 191
-203.050590 170.974469 756.995630 42 71 58
12.761901 -101.050544 380.418420 122 104 93
-245.395446 188.893569 752.376986 52 93 78
-18.415387 -85.704309 381.786418 71 63 56
-62.340659 -60.331142 392.827868 54 48 43
41.159973 -110.501349 386.013341 146 147 147
-151.512527 20.955183 478.975058 109 125 135
-25.131741 -81.350195 382.603765 242 189 93
-9.481864 -88.683426 381.095123 135 123 113
-47.871596 -67.441058 387.855101 70 53 28
63.569385 -118.467617 386.348343 171 158 149
25.740528 -103.874946 380.578065 123 111 106
-18.010868 -83.757317 380.839872 83 70 64
-18.010868 -83.757317 380.839872 83 70 64
106.132007 -130.707645 401.212406 230 217 206
-209.969521 180.098903 757.163191 40 84 67
-27.326888 -78.273898 382.698464 251 178 36
-164.230299 52.236372 526.552296 91 67 17
-96.358913 -31.252536 413.942099 78 88 95
-25.038001 -78.698182 382.030892 227 121 0
-16.418414 -83.210969 380.647683 194 192 183
-58.016366 -59.265482 391.077614 181 177 174
-220.987225 185.135829 751.782894 45 87 69
-118.209851 -12.738639 430.575180 147 159 165
-147.953010 158.787215 765.179682 14 32 20
72.038358 -118.996501 388.198590 247 241 235
72.038358 -118.996501 388.198590 247 241 235
-235.576606 190.641999 747.701979 74 107 93
-14.443707 -83.452207 380.137944 170 165 161
7.143411 -93.709862 378.696465 97 82 71
20.477229 -99.524021 379.127192 120 103 93
38.935855 -106.497896 381.985044 140 138 136
7.720394 -93.789369 378.429341 162 152 142
-241.262960 193.922603 747.045422 58 96 82
-152.478671 162.063277 764.171934 64 99 90
-12.700926 -83.259571 379.627395 186 178 167
52.290511 -110.795689 383.213139 205 195 191
52.290511 -110.795689 383.213139 205 195 191
-20.413949 -79.143566 380.418563 234 143 1
50.134975 -109.562337 383.467340 235 226 222
50.134975 -109.562337 383.467340 235 226 222
-21.854030 -78.141797 380.950832 237 194 147
-42.300421 -66.453052 385.744691 229 162 39
22.986998 -99.240607 378.867054 241 233 232
-11.857133 -83.394468 379.039264 81 61 50
-110.395348 -16.620013 424.070740 174 180 185
-192.248952 179.654300 756.624603 2 26 10
-103.387451 -22.491378 418.156719 165 174 178
-56.135136 -57.255179 389.681721 55 47 44
-61.977202 -53.778124 391.211700 59 45 39
20.962019 -97.320306 378.245616 115 107 106
-15.376066 -80.351669 379.404712 62 45 38
51.786792 -109.242761 382.157636 143 136 131
19.230217 -96.480447 378.090286 220 215 212
-231.564522 193.256474 744.938421 8 31 16
15.681157 -94.735962 377.727032 111 93 84
15.550470 -94.732606 377.423096 111 93 84
-225.183058 190.099251 742.413235 77 111 94
-102.829862 -21.550018 417.886543 160 167 172
-64.285392 -51.238841 392.188716 47 37 31
-60.297447 -53.595978 390.921378 124 120 115
-25.009954 -74.144399 380.794120 222 118 1
-50.806302 -58.985078 388.142443 212 208 203
-13.417636 -80.115199 379.101706 215 211 202
-23.711608 -74.543178 380.911446 224 112 2
-59.662813 -53.661758 390.538430 56 48 41
-103.074849 -20.691089 418.311262 22 22 26
-76.776439 -42.051792 398.568535 133 136 139
-15.275793 -79.032409 379.223418 223 219 211
-5.479987 -83.546370 377.983975 161 154 143
-49.002627 -59.542036 386.858749 113 106 104
18.856393 -94.234723 377.999377 179 175 174
-197.889650 185.158157 752.716064 65 105 89
-121.540177 -0.129673 443.504429 162 178 185
15.797442 -92.833596 377.361512 227 220 215
15.797442 -92.833596 377.361512 227 220 215
-236.775208 200.610662 747.587681 6 15 8
61.180151 -110.103810 383.342290 233 223 217
40.628546 -102.697301 379.386115 138 125 120
-49.540299 -58.553088 387.070537 139 134 134
-13.968496 -78.576666 378.626037 74 57 49
-95.157933 -24.670093 414.160919 146 156 163
-95.136142 -24.706344 414.084339 146 156 163
-75.490880 -41.707349 397.299266 51 49 46
-15.384594 -77.578837 378.871155 65 50 39
21.215594 -94.711894 377.225947 116 98 87
42.190242 -102.637064 379.471898 220 223 223
-17.218694 -76.136029 379.337358 192 108 0
13.671239 -90.968615 377.037525 233 221 218
-185.235858 183.084834 753.256083 1 23 8
-60.682815 -49.993029 390.795040 50 37 30
-3.770667 -82.159358 376.923633 83 66 57
5.559248 -86.290330 376.728392 98 78 67
20.664030 -92.799121 376.998138 156 143 139
5.625261 -86.268550 376.570702 98 79 70
-86.850858 -57.016301 349.866700 51 48 47
-75.629711 -39.463559 397.741747 190 195 198
-43.614432 -59.979677 384.934592 231 165 34
-12.265020 -76.991940 377.926970 75 57 50
23.933803 -93.268043 376.858687 188 180 171
-23.063065 -70.757383 379.842615 242 200 138
-5.456156 -80.020511 376.792526 95 76 65
58.002293 -105.790377 381.432390 234 228 223
24.237235 -120.927787 319.866300 249 242 234
-24.400640 -69.790137 379.871750 214 122 0
-2.077221 -81.080234 376.556516 85 71 63
59.483445 -106.068504 380.840182 123 111 101
-6.184317 -78.526056 377.078652 212 202 195
-12.578753 -75.059444 377.738667 214 206 195
-12.578753 -75.059444 377.738667 214 206 195
-3.123463 -79.447573 377.210832 135 121 108
-46.630642 -55.474746 386.142731 213 198 187
62.049091 -105.680227 381.259465 192 177 165
-151.109421 175.583875 755.477524 4 32 17
43.997517 -99.229747 378.074265 111 113 114
-12.268246 -73.871917 377.203560 66 56 39
-9.023454 -75.413871 376.894212 217 209 203
-9.023454 -75.413871 376.894212 217 209 203
-20.370711 -69.498980 378.708148 199 97 1
-223.844075 202.408338 740.712595 16 41 27
-4.173764 -77.627474 376.300216 86 66 57
-109.062636 -9.239650 420.112658 145 149 151
-165.997899 -90.699548 150.780344 24 19 16
-11.366896 -73.686570 376.984835 144 128 117
-24.007320 -66.784185 379.457355 249 171 33
-10.240526 -74.118632 376.512504 74 53 47
-6.519017 -75.762010 376.138997 203 182 155
12.439878 -84.502435 375.216889 97 79 70
-237.449598 210.389209 741.104507 21 54 37
-56.165141 -47.381461 388.764596 44 36 28
-15.168990 -71.168780 377.281237 101 68 16
-15.168990 -71.168780 377.281237 101 68 16
13.497485 -84.831381 375.020480 169 157 149
-11.293563 -72.933894 376.711583 72 54 40
-13.808970 -71.308428 377.270484 212 157 68
-13.808970 -71.308428 377.270484 212 157 68
11.687249 -83.584529 375.067806 93 77 65
-201.294613 198.354220 746.133566 36 81 64
66.835338 -103.769791 382.359433 235 230 227
-10.275209 -72.885644 376.612306 123 104 93
-8.848482 -73.358142 376.596427 87 66 57
12.522379 -83.504641 374.939561 215 206 194
10.767543 -82.505113 374.916005 92 79 69
-17.375168 -68.333834 377.632594 76 54 33
-22.276145 -65.549874 378.794718 201 123 14
-221.558189 204.813051 737.211752 52 89 73
15.747154 -83.465713 374.819493 139 127 115
24.050158 -87.196207 374.406910 111 103 96
-1.158292 -75.668830 375.170922 99 73 60
-21.797821 -64.759111 378.316951 238 172 70
-9.378947 -71.032315 376.236725 210 198 188
1.583553 -75.598365 375.644207 233 216 205
1.583553 -75.598365 375.644207 233 216 205
-50.880766 -47.368079 385.538268 29 21 17
15.805779 -82.251853 374.098420 100 78 67
56.222022 -96.197653 380.743718 120 119 118
141.378927 -119.203508 407.722044 225 204 185
-18.960837 -64.519960 377.592397 189 168 132
-220.602489 208.718729 736.060286 13 52 40
-20.880610 -63.476044 377.924466 203 111 3
-212.179923 209.964323 745.209312 8 22 15
-4.144232 -71.997750 375.170326 96 73 55
-2.625761 -72.644049 374.877167 86 68 52
166.112089 -30.423123 574.885798 130 117 105
-11.749317 -67.327803 375.671387 211 202 192
-13.519137 -66.189301 376.167822 197 182 164
-22.498335 -61.148751 378.143573 232 137 4
4.865335 -74.981058 374.118233 248 234 225
-18.601316 -63.172400 377.121258 109 78 28
19.643046 -81.507599 373.143005 184 174 165
-66.792881 -33.012146 394.530010 47 38 32
-13.244253 -65.663165 376.271462 176 157 134
-66.812181 -33.066162 394.298267 47 38 32
22.830269 -82.238823 373.783064 149 134 123
-6.778450 -68.778539 374.954414 129 111 89
-39.794707 -50.427943 382.451439 194 118 9
-149.843311 -83.063334 196.204400 41 40 38
-12.948230 -65.278697 375.707817 149 138 115
-16.353956 -49.109766 403.906488 203 127 9
18.592702 -79.653120 373.225713 182 171 166
13.610415 -77.307230 373.406649 208 203 195
13.610415 -77.307230 373.406649 208 203 195
-13.265412 -64.001441 375.948548 191 142 67
-11.706680 -64.799809 375.501370 77 62 52
5.236676 -72.951186 373.451877 93 67 58
5.236676 -72.951186 373.451877 93 67 58
16.989845 -78.082198 373.194885 192 186 181
60.015845 -81.384814 399.580026 238 234 229
-28.132525 -55.534339 378.976917 237 188 121
-196.464002 207.932329 740.647268 61 94 79
-54.651898 -39.388502 387.740564 104 97 87
-156.084764 194.545770 747.644186 37 66 50
-52.321637 -41.108567 386.303544 40 30 26
-52.321637 -41.108567 386.303544 40 30 26
-86.489630 -17.123841 403.858948 141 151 155
-40.743411 -48.091006 381.742406 46 34 27
0.689535 -69.512916 373.656702 227 126 1
-27.730972 -54.523140 378.704953 221 132 4
-53.732389 -38.813749 387.003422 113 107 99
8.269036 -72.013551 374.270010 225 213 204
-137.851954 190.513682 749.790430 17 23 13
-137.851954 190.513682 749.790430 17 23 13
-182.344961 205.409861 742.026806 60 89 76
5.982310 -71.408767 372.773027 231 215 203
18.908811 -77.036434 372.514582 98 84 76
-7.383448 -64.763343 374.495339 233 142 5
-20.881969 -57.072860 376.491642 220 135 6
-61.629689 -32.479215 389.972377 75 69 62
21.109626 -77.145666 372.242522 103 85 78
7.963573 -71.061522 372.654295 90 69 60
7.963573 -71.061522 372.654295 90 69 60
-1.241772 -66.394329 373.718262 221 109 0
-1.241772 -66.394329 373.718262 221 109 0
-50.323635 -39.180276 385.381460 175 172 166
-12.899531 -60.048294 375.380802 75 50 29
-129.446042 192.637074 752.688313 45 84 68
-3.167884 -64.950407 373.630190 211 110 2
16.393898 -73.696274 372.006893 94 73 65
9.417494 -70.567948 372.257471 226 212 200
-41.819483 -43.393400 382.108068 45 33 23
11.646170 -71.211535 372.111320 100 81 71
11.646170 -71.211535 372.111320 100 81 71
-50.030178 -38.014671 384.829855 34 19 18
-50.030178 -38.014671 384.829855 34 19 18
-18.057258 -56.305295 375.722098 51 39 33
-40.701577 -43.196142 381.869817 42 29 14
-180.059314 211.000919 740.743351 17 45 32
-53.957856 -34.800071 386.280298 130 129 124
-26.685062 -50.819308 377.881289 228 157 38
-50.978839 -36.320275 385.445809 37 26 22
-50.978839 -36.320275 385.445809 37 26 22
1.508633 -65.181297 372.784066 235 137 0
-54.463345 -34.059581 386.196852 37 26 22
5.336298 -66.904670 372.048068 221 138 10
-121.107614 191.342509 747.606230 6 35 20
-12.744838 -57.239330 374.685073 242 211 163
-17.290489 -54.605019 375.891805 228 216 209
-10.262313 -58.233547 374.474788 250 204 134
-141.711652 201.846051 748.886347 7 15 4
-2.715608 -62.029618 373.080564 210 127 4
-55.119890 -32.423320 386.751699 32 21 19
-55.119890 -32.423320 386.751699 32 21 19
-7.676263 -59.496182 373.698807 250 170 36
-223.516321 228.524327 733.566380 15 40 26
35.899955 -78.623605 371.825123 104 89 82
10.008661 -67.868304 371.605110 116 83 39
-1.688092 -62.225199 372.922564 250 198 121
4.979694 -65.362293 372.158790 231 139 4
4.979694 -65.362293 372.158790 231 139 4
-27.331311 -48.630205 377.762270 63 36 24
-63.264585 -26.676446 390.088344 29 21 20
3.192179 -63.480341 372.116685 232 135 0
-172.697806 211.373258 735.754490 23 56 39
28.779316 -74.068463 371.292329 158 150 141
25.521484 -72.657210 371.170831 163 155 150
-102.964461 6.810477 417.138863 179 179 174
23.028737 -71.218783 371.113205 159 152 145
23.028737 -71.218783 371.113205 159 152 145
-36.974034 -41.068676 380.193639 115 64 1
9.005244 -65.141159 371.377659 230 172 75
9.005244 -65.141159 371.377659 230 172 75
17.308363 -68.796414 370.969796 90 66 54
-36.144733 -41.659379 379.617929 200 157 87
-34.400371 -42.478809 379.305983 53 33 12
