ply
            format ascii 1.0
            element vertex 12018
            property float x
            property float y
            property float z
            property uchar blue
            property uchar green
            property uchar red
            end_header
-345.382142 152.250850 2052.009010 133 137 133
-246.129417 -491.439247 1810.318947 67 72 44
-279.302192 933.077049 2676.725960 107 129 126
-361.474180 64.018625 1923.159981 133 137 133
-361.474180 64.018625 1923.159981 133 137 133
-206.790662 -492.090607 1819.285011 74 78 52
30.361411 -748.647308 2062.160492 252 255 249
40.952113 -749.377203 2064.944077 253 253 254
-350.161481 1145.682049 2460.546112 230 237 240
62.027144 -748.530149 2063.932419 90 99 243
79.368675 -757.370329 2080.469704 169 152 209
79.368675 -757.370329 2080.469704 169 152 209
-138.483989 -560.111713 1831.369972 117 121 84
-129.078162 -558.902073 1836.697006 118 122 86
-91.059083 -559.568644 1842.020798 169 173 139
-78.888887 -561.041403 1843.216133 130 135 101
354.525948 -823.295212 2275.472641 124 127 105
79.977489 -567.593336 1859.138870 127 131 95
321.127248 -584.362698 1874.866104 169 172 150
390.706682 1116.657448 2410.803413 231 240 243
440.958357 -355.741739 1947.147942 134 141 136
426.951313 -477.151537 1894.379044 120 125 110
520.669937 10.108608 2094.617653 115 121 98
433.743572 -482.421398 1894.864845 148 154 132
443.063259 -487.611723 1892.745209 186 192 169
609.595585 1134.225559 2368.971443 152 166 169
-986.782551 94.239515 3600.224686 229 236 240
-1021.211624 287.343073 3428.433990 207 218 222
-1075.917816 540.447140 3132.794571 226 235 239
-1009.964275 328.210449 3368.522644 214 225 229
-1018.563461 408.574772 3292.862701 218 227 231
-1117.957306 797.670078 2829.327202 214 224 231
-1008.417416 429.288197 3268.219376 213 219 224
-994.507313 408.674765 3278.131485 205 216 220
-1004.007244 450.024128 3247.750854 212 221 225
-905.859280 116.261733 3626.632309 224 233 236
-991.281700 414.740896 3272.310257 205 216 220
-1134.266567 922.823715 2680.730438 222 231 235
-1132.198906 923.602295 2673.911858 160 170 177
-1122.768307 920.684052 2687.326241 163 171 178
-1120.129204 914.831161 2703.529930 226 235 241
-1111.936569 904.380131 2695.051193 151 160 167
-1115.131569 917.982674 2697.598839 224 230 235
-647.670603 -434.241581 2367.710304 224 229 232
-664.339781 -386.167049 2424.799728 215 226 230
-655.469608 -411.719322 2430.399513 111 118 93
-655.469608 -411.719322 2430.399513 111 118 93
-652.331257 -414.698172 2409.824753 111 118 93
-652.331257 -414.698172 2409.824753 111 118 93
-972.483540 501.644897 3185.905266 211 220 224
-1075.058270 844.810677 2791.540337 229 231 235
-1087.623215 887.523079 2732.110405 233 239 244
-1091.483402 901.289845 2708.289909 178 185 190
-972.248745 515.237331 3169.256020 192 202 208
-981.917667 553.708363 3127.106857 205 215 222
-1088.323212 903.990459 2710.527420 228 232 237
-643.373394 -424.011803 2485.308075 207 216 219
-643.373394 -424.011803 2485.308075 207 216 219
-1082.551384 892.746830 2720.419502 235 241 246
-1080.470467 900.637531 2732.701111 172 182 186
-976.782322 571.785116 3106.411743 208 218 225
-967.151070 546.900415 3140.012932 202 211 215
-1055.407906 831.348228 2812.451363 229 235 239
-636.105061 -415.933895 2486.227226 212 220 222
-974.799538 581.349516 3086.531258 212 222 229
-973.952866 597.452402 3093.339348 199 209 216
-1048.364353 836.803055 2810.056496 233 236 240
-1051.446629 847.567844 2795.209312 174 182 186
-542.420864 -676.656866 2551.857376 192 204 206
-948.796940 554.207659 3115.464973 234 240 243
-948.796940 554.207659 3115.464973 234 240 243
-948.796940 554.207659 3115.464973 234 240 243
-1051.492786 891.751194 2735.884285 229 233 238
-995.234108 724.166822 2935.517311 219 228 232
-951.511669 608.109236 3056.427574 211 220 227
-564.188147 -565.675735 2482.051849 100 106 81
-975.956440 708.155012 2950.743675 225 232 235
-959.433937 657.960415 3021.326065 208 219 223
-1029.171944 877.302170 2762.433243 215 224 228
-940.244293 625.615835 3050.946808 232 241 245
-543.874216 -594.178772 2516.765594 105 109 92
-526.048756 -647.799349 2475.584412 158 166 165
-540.253592 -595.693731 2511.757278 251 251 238
-536.770058 -595.622921 2516.195488 90 95 83
-537.987423 -589.756107 2509.618568 158 162 149
-961.230183 722.765875 2929.327011 223 232 236
-950.372887 691.889906 2968.381119 217 226 229
-941.797924 666.754103 3002.483749 213 224 229
-526.158762 -624.328756 2471.030617 95 101 85
-861.090374 450.357914 3246.459198 221 230 233
-935.793877 679.239845 2977.334595 208 217 221
-844.489956 445.706177 3254.123688 228 237 240
-573.281717 -428.575611 2401.976776 144 149 120
-930.783749 717.845583 2947.753525 228 234 239
-934.145641 742.115784 2926.718330 135 145 152
-1001.423740 963.227749 2656.794167 174 180 185
-920.432377 748.235464 2895.328331 209 218 222
-944.497013 824.678421 2822.351074 228 234 239
-495.008612 -625.087166 2241.767693 91 98 83
-919.676685 759.918690 2893.619537 212 221 225
-966.454315 898.950958 2730.318260 228 234 239
-978.332424 960.937405 2662.569618 227 234 237
-978.332424 960.937405 2662.569618 227 234 237
-934.165478 841.053295 2808.317757 225 233 237
-924.230385 817.015553 2836.833572 207 218 222
-973.283672 961.186218 2655.410004 178 187 191
-912.832737 796.981716 2861.072159 206 216 220
-908.647442 803.893948 2841.154480 203 214 218
-395.861197 -864.037132 2173.906326 146 149 127
-591.007662 -237.081528 2174.687958 232 229 202
-591.007662 -237.081528 2174.687958 232 229 202
-901.659966 857.548523 2795.743752 206 215 219
-607.876492 -165.087366 2198.856926 84 90 73
-622.004700 -108.704424 2244.358444 199 207 212
-921.088123 934.837341 2701.910019 163 172 176
-903.787518 897.794628 2749.660301 213 220 226
-613.633442 -117.224669 2218.877220 103 105 105
-929.330254 972.881413 2661.668587 235 242 245
-827.550983 710.823107 2952.228546 225 232 235
-901.748276 913.722134 2734.240723 216 222 227
-899.915600 918.338776 2727.366257 197 205 209
-585.303640 -183.220840 2198.095894 186 189 181
-667.711067 125.355101 2418.959999 195 207 210
-605.660915 -107.331252 2217.270279 105 105 105
-903.991699 950.550365 2686.327744 239 246 247
-896.528912 931.955528 2707.180786 222 228 233
-503.435946 -412.704277 2296.820641 119 126 95
-911.324406 971.140575 2664.972878 231 237 242
-577.921963 -184.989345 2204.161644 78 83 74
-859.353638 849.431419 2786.317062 217 228 232
-855.192947 856.207275 2791.807556 161 172 176
-890.555477 951.655960 2683.253860 236 242 246
-570.404196 -183.270705 2193.684959 168 173 158
-889.296341 958.704948 2677.553368 196 202 207
-568.535185 -185.327303 2197.981834 83 86 79
-889.675999 964.795017 2661.452866 206 213 216
-875.930405 947.554684 2720.159531 220 229 232
-887.457180 983.585072 2648.924065 219 225 230
-384.810972 -797.205067 1987.217331 88 90 68
-874.668407 962.688255 2653.677940 204 207 210
-867.792034 955.217838 2690.717888 232 239 242
-875.137043 979.206657 2671.370697 217 221 221
-875.245380 976.377869 2659.009552 230 230 231
-569.086885 -137.069678 2191.839218 69 74 73
-862.690639 949.156666 2686.245155 174 182 185
-851.553345 920.790577 2700.666428 236 238 239
-864.889431 971.182823 2657.121277 196 201 200
-826.600742 879.118443 2763.187599 227 236 239
-847.646618 933.930111 2703.258514 185 193 196
-848.495770 947.065735 2683.589172 243 245 245
-875.141621 1015.534782 2620.104980 167 171 176
-865.560913 998.679829 2616.803551 232 236 241
-838.675880 947.983742 2692.250252 186 192 194
-824.078846 915.396118 2730.589294 232 236 237
-691.383410 599.452066 3075.699615 232 237 238
-856.276321 999.551296 2622.281075 176 181 184
-846.041393 978.940105 2623.779297 196 199 203
-809.408379 896.937752 2736.246490 217 226 229
-843.795776 982.782459 2647.347832 241 246 249
-819.465733 925.050735 2706.492615 173 182 185
-827.658081 946.704197 2686.978531 224 231 234
-843.206120 993.989563 2641.380882 239 242 246
-812.502861 921.179485 2723.539162 177 182 183
-849.209690 1006.212139 2607.942200 240 243 247
-838.642120 986.958504 2640.785027 179 184 187
-372.438025 -761.360979 1976.309204 89 93 64
-832.802773 981.852436 2632.470894 247 252 253
-833.114910 996.530247 2650.717926 184 189 192
-817.936420 955.687332 2673.145676 174 181 184
-796.786880 911.973953 2729.551888 168 176 178
-825.249767 987.591076 2639.952469 231 237 240
-789.818048 910.774803 2722.668648 215 226 228
-697.803783 703.369474 2961.876678 240 241 240
-833.089066 1029.750443 2620.177460 249 250 254
-792.914867 932.208824 2710.662460 169 178 182
-827.416611 1021.448708 2636.800385 184 187 191
-821.383953 1002.802753 2620.422935 243 246 249
-810.715961 1000.082588 2621.342468 235 240 243
-762.525320 902.624989 2730.542183 204 216 218
-801.581287 992.551327 2627.959633 238 241 245
-781.897926 949.472713 2680.448723 184 191 194
-797.283602 992.150688 2626.649094 199 204 207
-797.801542 1006.917000 2618.986893 229 232 236
-781.101942 970.963192 2665.760231 234 241 243
-748.969650 896.510220 2742.152786 222 227 228
-748.969650 896.510220 2742.152786 222 227 228
-799.551916 1017.368889 2616.219902 249 251 252
-787.375164 993.542004 2631.401253 241 245 248
-754.651499 921.893120 2720.108223 219 231 233
-804.671478 1035.007668 2590.990067 147 151 154
-793.820477 1026.996803 2589.893913 245 247 248
-681.559849 774.668789 2870.117378 228 234 237
-745.714045 926.548958 2700.803375 225 232 235
-787.336159 1030.967522 2580.447960 144 148 153
-769.199610 992.989445 2627.971649 233 236 240
-762.147188 996.363735 2643.814850 227 232 235
-749.261475 963.883972 2666.014481 236 243 246
-778.914976 1031.174374 2588.753891 132 137 140
-778.914976 1031.174374 2588.753891 132 137 140
-772.670937 1018.884182 2601.242638 237 242 245
-773.218775 1037.891006 2588.449860 226 229 234
-708.417606 895.954704 2744.056702 215 224 227
-708.417606 895.954704 2744.056702 215 224 227
-768.788290 1031.493282 2596.269035 251 253 254
-747.849274 1003.269863 2643.002701 180 185 188
-764.037848 1035.309505 2591.617775 145 150 153
-740.846825 998.492813 2633.716774 238 245 247
-740.846825 998.492813 2633.716774 238 245 247
-749.713993 1023.719597 2610.823822 184 189 192
-753.410769 1043.117809 2602.711105 157 161 166
-753.410769 1043.117809 2602.711105 157 161 166
-748.223209 1032.400703 2600.043488 240 243 247
-735.127592 1024.883461 2595.042610 135 138 142
-409.048510 -451.968479 1896.321487 127 136 126
-733.352423 1024.032784 2601.013565 227 230 234
-718.221617 1003.227043 2620.102882 241 248 250
-728.693771 1032.119465 2604.521751 137 141 146
-730.663157 1051.919746 2608.990288 226 230 235
-722.879648 1032.072544 2601.800156 238 241 246
-719.665956 1042.749214 2607.668304 157 161 166
-716.709852 1029.504681 2599.634361 229 233 238
-713.263035 1024.914169 2600.630569 134 138 143
-339.958048 -646.964884 1909.788704 142 146 126
-711.373568 1033.075714 2604.919815 218 223 228
-335.937691 -644.555283 1904.945374 76 84 51
-335.937691 -644.555283 1904.945374 76 84 51
-694.178200 1024.549294 2600.443459 234 238 243
-695.626402 1031.535912 2601.397896 140 146 151
-652.316999 944.161606 2699.509811 227 234 237
-682.865238 1004.021168 2609.708595 231 237 241
-662.199783 985.861588 2646.692085 233 240 243
-679.104757 1026.126957 2606.701660 239 245 250
-680.345392 1032.652664 2599.939537 224 228 233
-686.421156 1058.111382 2578.710556 237 240 244
-479.383993 20.107408 2078.247643 113 116 90
-609.613180 905.609512 2740.396881 227 235 235
-644.577742 981.359100 2652.661133 233 238 241
-605.961037 912.481689 2736.655045 232 237 238
-599.679089 909.987926 2749.885178 214 223 226
-655.356359 1018.173790 2609.873199 229 234 237
-663.029337 1046.414566 2593.656158 239 244 247
-635.741615 986.773682 2646.317482 231 238 241
-635.741615 986.773682 2646.317482 231 238 241
-648.123550 1009.732533 2609.786224 179 184 187
-661.666012 1037.412357 2569.837189 239 244 246
-582.875586 913.750648 2740.937233 216 225 228
-582.875586 913.750648 2740.937233 216 225 228
-599.869204 943.945885 2688.465881 222 231 234
-637.702179 1020.967484 2602.239037 162 168 173
-629.123354 1015.293598 2599.242210 168 172 177
-626.163483 1016.692066 2600.687027 178 182 187
-588.073874 941.301727 2678.623390 226 233 236
-618.385124 1023.755074 2603.244781 234 240 244
-322.816801 -585.292959 1832.839584 131 133 97
-610.497618 1036.767292 2627.558136 170 177 182
-623.492193 1049.978733 2582.289124 186 189 193
-612.668276 1038.065243 2607.670593 238 243 245
-623.863506 1048.393154 2563.889503 246 249 252
-307.253122 -614.795589 1854.386711 135 142 99
-465.478086 34.993154 1968.562317 98 104 99
-546.262455 907.198620 2734.297562 229 239 240
-546.262455 907.198620 2734.297562 229 239 240
-598.831749 1033.753777 2625.043678 155 161 166
-600.478840 1026.760483 2605.715752 216 220 225
-570.620728 1010.482407 2608.862686 143 149 154
-573.351526 1022.587013 2585.316277 228 234 239
-573.351526 1022.587013 2585.316277 228 234 239
-556.451654 1011.029148 2613.339233 152 157 162
-303.894401 -547.826576 1829.429817 96 101 50
-545.811319 1009.026337 2602.808380 228 231 235
-520.260477 995.869923 2615.196037 230 235 237
-532.872677 1040.174580 2595.649147 235 240 243
-528.128195 1042.938423 2581.131935 227 234 237
-551.081991 1088.660908 2534.230232 246 248 249
-551.081991 1088.660908 2534.230232 246 248 249
-552.281857 1099.511623 2539.228058 200 202 203
-552.281857 1099.511623 2539.228058 200 202 203
-551.616287 1092.738819 2532.574272 200 202 203
-551.616287 1092.738819 2532.574272 200 202 203
-552.846336 1091.245747 2518.257141 248 250 251
-550.611448 1087.357903 2521.320724 245 247 248
-378.415275 -66.921538 1963.935471 135 134 103
-548.773146 1095.725060 2523.440933 205 206 210
-543.714380 1085.979366 2528.530884 243 244 248
-527.768421 1055.563354 2554.122353 243 244 248
-280.229497 -571.383572 1803.222466 157 161 119
-525.550270 1073.047829 2552.036667 191 198 201
-381.564713 394.589233 2377.494812 160 181 173
-478.401947 1011.530304 2622.188187 215 222 225
-495.923090 1045.256805 2554.245949 226 230 234
-495.923090 1045.256805 2554.245949 226 230 234
-313.843012 -310.163808 1872.078896 116 131 94
-476.503754 1044.461823 2587.705421 235 240 243
-311.815739 -307.918978 1870.589447 152 166 129
-311.815739 -307.918978 1870.589447 152 166 129
-450.803518 1004.540348 2618.097687 219 225 230
-498.547840 1090.191078 2521.335220 232 237 240
-504.953766 1100.170422 2499.184799 250 251 253
-494.407463 1088.143539 2524.954796 177 182 185
-439.421606 995.417595 2621.715736 145 154 158
-306.921029 -292.866659 1881.482506 144 165 117
-295.194960 -286.655831 1920.456886 64 71 50
-454.908514 1030.830956 2579.325485 227 234 237
-464.072609 1086.618137 2534.325790 246 251 253
-399.124718 984.459972 2650.149155 231 238 241
-408.450699 1001.953506 2622.849464 202 209 212
-442.733097 1060.057640 2552.517319 230 237 240
-364.074349 62.024063 1926.987839 73 81 71
-391.294909 1004.391956 2629.051781 200 207 211
-435.335302 1087.764072 2527.635002 240 243 246
-225.416541 -558.153963 1818.411827 121 125 85
-412.339640 1059.617901 2571.306419 233 240 243
-50.909650 78.456539 2864.889717 16 16 9
-50.138152 81.366420 2855.602074 111 114 111
-50.138152 81.366420 2855.602074 111 114 111
-345.757794 979.137421 2643.688011 159 168 171
-345.757794 979.137421 2643.688011 159 168 171
-383.152795 1048.091984 2560.997772 234 238 243
-383.152795 1048.091984 2560.997772 234 238 243
-338.660455 982.900715 2640.862274 198 205 208
-88.335067 147.247088 2734.580994 54 56 50
-88.335067 147.247088 2734.580994 54 56 50
-264.708638 -106.012416 1994.239998 30 34 16
-203.593755 -558.301830 1822.259712 119 125 78
-402.446556 1117.523956 2475.902557 172 179 182
-73.742825 171.945238 2733.406067 53 56 48
-409.383249 1123.527908 2454.749107 236 241 244
-397.440076 1126.610279 2489.154434 231 236 239
-381.354690 1104.306984 2517.048645 233 239 242
-253.218842 -101.405144 1960.002136 115 114 76
-357.015467 1103.652382 2482.416534 209 216 219
-256.810522 974.271107 2639.405251 134 146 150
-29.538447 886.955070 3144.922256 62 71 60
-237.340236 975.584316 2644.094658 132 144 148
-332.468152 1129.152203 2454.642868 226 233 236
-326.344895 1120.121193 2460.908890 224 231 234
-309.837794 1116.089344 2489.636040 225 232 235
-212.586832 959.985256 2631.512833 122 136 139
-306.442022 1107.705212 2475.375175 169 176 179
-249.711132 -551.242161 1548.233891 71 76 47
-184.903860 -99.402255 1991.702461 160 156 121
-305.231667 1148.976135 2445.671844 213 220 223
-305.163050 1156.473732 2425.030136 219 224 229
-172.097647 -99.325967 1994.701004 152 147 114
-277.600241 1141.948128 2462.370682 213 220 223
40.222496 -738.019705 2057.164955 253 254 254
39.981517 -737.986469 2056.428337 253 254 254
44.534916 -740.502262 2059.486771 252 249 255
47.245172 -745.361137 2062.386322 250 245 255
-122.856951 -115.306401 2006.445694 99 102 65
-85.489482 -560.618973 1841.744614 123 131 92
62.657905 -747.740459 2071.426201 98 93 240
62.657905 -747.740459 2071.426201 98 93 240
78.126150 -756.412458 2078.104591 168 151 214
-65.776765 -568.096066 1843.701935 116 121 92
83.015168 -756.808567 2076.860237 255 255 252
-80.071253 -738.204384 1709.278679 140 141 234
-85.361385 -737.697649 1691.681290 140 141 234
-77.041852 421.553898 2303.984833 120 121 117
-145.123768 1106.268597 2488.219643 147 159 161
-67.348856 346.182847 2247.858620 124 121 118
-67.348856 346.182847 2247.858620 124 121 118
-69.657284 -118.531156 2010.919380 97 99 63
-45.162269 -556.704617 1844.476318 121 126 75
-58.989024 343.413997 2245.808411 123 126 124
-51.534605 325.047636 2231.561852 181 189 188
-48.755768 -120.121849 2019.214630 23 23 10
-141.922104 1172.269344 2406.669426 199 210 214
-140.897810 1181.068325 2408.328819 150 161 165
-140.897810 1181.068325 2408.328819 150 161 165
-43.399483 251.432323 2179.267502 118 120 120
-23.248862 311.691618 2246.430779 156 166 166
-35.644910 251.833415 2182.543755 118 122 122
-32.376602 -123.445833 2018.038368 29 30 14
53.190172 919.827843 2647.231293 119 137 138
69.991255 378.103662 2422.253990 126 135 125
-109.938359 1154.913044 2408.135986 205 214 217
-109.938359 1154.913044 2408.135986 205 214 217
-21.113603 249.315381 2182.443619 117 123 122
-5.587393 332.378578 2249.219322 189 194 193
-6.393015 297.972226 2224.046898 122 127 128
11.398432 325.717020 2246.882439 187 196 194
6.689968 -563.983059 1852.644348 108 112 79
17.141519 331.165648 2248.032379 126 127 124
47.153965 316.034532 2247.431755 132 137 138
48.439941 324.926186 2251.365852 188 192 192
33.894926 242.168927 2185.025406 119 123 124
33.894926 242.168927 2185.025406 119 123 124
52.089763 320.339513 2248.572731 190 196 197
60.890645 328.238821 2254.759979 128 128 128
66.225296 325.787282 2256.786156 185 190 189
62.541687 304.197264 2238.738060 119 124 123
67.611223 318.201065 2248.468781 190 197 196
-63.658357 -656.343794 1607.180786 139 149 113
76.824021 317.356539 2252.559090 131 137 136
83.060968 317.700362 2254.001236 186 193 191
91.067344 311.687493 2250.958824 132 138 137
112.767112 319.498539 2260.597992 188 194 193
117.546785 322.972608 2258.969498 128 130 130
117.546785 322.972608 2258.969498 128 130 130
416.561031 -907.605934 2315.048981 139 142 127
8.503860 49.680620 1942.363167 116 125 112
123.907065 -567.639208 1869.775963 124 128 92
329.358006 888.598919 2655.277252 177 190 192
159.609854 1115.053749 2426.207352 159 171 173
168.653321 1114.444447 2431.181908 160 171 175
149.890769 -569.052219 1875.019073 122 125 93
168.878770 1113.350868 2422.601128 213 222 226
168.878770 1113.350868 2422.601128 213 222 226
190.703964 1113.989925 2424.632263 207 218 222
193.635750 -571.721458 1876.408577 133 137 112
210.309911 -573.385334 1874.252701 145 147 120
222.271705 -570.582438 1881.056595 98 102 65
506.126070 856.782055 2672.275925 126 141 144
509.657955 836.685848 2667.643929 170 183 185
250.089312 -575.160599 1884.041595 142 145 119
547.839069 890.236092 2657.899094 131 146 149
547.839069 890.236092 2657.899094 131 146 149
232.574248 1233.069611 2275.651550 209 218 222
67.895919 -609.314823 1601.053047 145 147 120
549.953365 904.932117 2631.123352 130 144 150
221.313000 36.431816 1959.881020 87 100 93
222.654009 32.598826 1959.364319 142 155 152
273.632550 -579.434013 1884.043312 81 83 63
229.286981 33.090660 1957.453156 97 106 98
565.858173 946.848106 2617.840576 142 157 160
295.779967 1207.083893 2293.373871 221 227 232
295.779967 1207.083893 2293.373871 221 227 232
346.060014 -151.949990 2048.330498 133 143 112
300.538707 -578.619194 1884.488297 149 152 128
320.290375 1194.376087 2305.718994 217 227 231
320.290375 1194.376087 2305.718994 217 227 231
324.639630 -582.627058 1888.492012 86 88 68
331.052208 -583.721828 1884.733963 92 93 73
344.738269 1218.210506 2267.518425 206 217 221
344.738269 1218.210506 2267.518425 206 217 221
406.315184 -152.792442 2057.907486 119 123 97
406.771994 -156.967032 2057.388115 55 56 48
629.731655 -680.973625 2226.462746 137 139 119
413.724566 -155.779898 2049.859428 67 71 52
773.916435 823.233414 2692.501068 142 157 160
612.008619 246.341014 2370.334053 84 92 82
370.233941 -583.077288 1891.874123 156 159 135
380.812836 1227.804852 2251.577187 218 227 231
380.812836 1227.804852 2251.577187 218 227 231
466.165972 -673.341227 1990.808487 137 139 119
422.456074 1197.934818 2280.441856 220 229 233
422.456074 1197.934818 2280.441856 220 229 233
812.241364 805.063438 2680.410767 150 164 170
392.568517 1246.616268 2234.918976 161 173 179
374.060488 13.593510 1980.531883 132 140 130
383.746362 1265.008354 2218.923378 199 211 217
407.420492 1288.255501 2212.992859 220 227 230
482.081175 -138.168836 2044.456673 134 139 119
894.369888 808.324432 2688.352203 208 219 223
397.690892 1302.780628 2182.649994 207 218 222
596.993256 1098.552418 2379.680252 162 172 179
595.598221 1091.194725 2358.527374 218 224 229
504.981136 1199.310017 2258.623886 219 230 234
513.516235 71.918148 2082.204437 200 212 214
447.306204 -478.602695 1913.097763 125 133 104
447.015238 -481.460381 1908.229828 158 164 141
452.922821 -484.914017 1905.206490 86 90 76
548.311329 -176.473939 2060.553360 111 115 96
527.882671 -185.423374 2032.584190 111 115 96
595.815468 1134.827518 2315.873718 216 227 231
484.663725 -597.990227 1911.644936 160 162 152
560.286427 1185.127258 2273.774719 214 225 229
600.959349 -542.698336 2049.657059 125 127 107
518.784618 26.673526 2041.321564 206 218 219
540.947247 7.759515 2055.579185 148 155 149
479.961157 -341.644669 1927.271080 164 176 180
515.666866 -558.691978 1935.751724 125 127 107
625.847721 1175.089550 2306.788826 202 211 215
621.921206 1167.915154 2300.745583 202 211 215
609.658432 1175.079060 2287.416267 211 222 226
468.775034 -394.760108 1893.301201 237 242 241
583.274412 -359.251285 2018.563843 221 223 223
610.657883 1166.364861 2277.313614 132 144 150
610.657883 1166.364861 2277.313614 132 144 150
545.909214 -373.338842 1968.654251 221 223 223
621.094131 1176.477051 2270.450020 205 216 220
409.552622 -118.452179 1851.388741 206 215 218
616.963100 1185.160923 2263.147545 142 154 158
601.990366 1237.858677 2224.072647 177 189 195
1128.739166 759.788084 2700.298500 171 183 189
628.739357 1223.831940 2227.126312 142 154 160
642.225170 1224.261284 2211.065292 213 225 231
734.150219 1133.824539 2291.665268 232 239 243
631.953335 1226.897812 2195.657539 205 217 223
639.403868 1250.323391 2177.736473 210 221 225
-1116.741562 802.155495 2774.352837 224 227 231
-1116.741562 802.155495 2774.352837 224 227 231
-1063.623047 287.816262 3608.462906 202 212 219
-1111.468506 793.143463 2823.440742 159 170 175
-1107.971382 877.705479 2626.088524 157 165 172
-1105.188656 748.992395 2921.452713 165 176 180
-1105.188656 748.992395 2921.452713 165 176 180
-1076.638222 537.181568 3217.782211 215 224 228
-1076.638222 537.181568 3217.782211 215 224 228
-1095.338821 865.784836 2634.401703 147 155 162
-1088.865471 829.115582 2763.195992 210 219 223
-1081.504154 855.615711 2694.344521 159 165 170
-1079.475498 918.216228 2525.591278 173 179 186
-1026.235676 404.998875 3423.991013 197 206 210
-1078.635120 926.251793 2532.626534 226 230 235
-607.887220 -493.782187 2373.509598 144 150 133
-1057.720757 861.285114 2708.457947 215 221 226
-1057.720757 861.285114 2708.457947 215 221 226
-1015.043449 519.259739 3285.616684 206 216 221
-1006.407166 485.220480 3323.709869 201 210 213
-1049.722385 858.442974 2703.224754 162 169 174
-650.637388 -409.315872 2563.984871 207 216 220
-1039.887714 777.350473 2898.480988 175 181 186
-994.451141 523.927212 3272.150421 206 215 219
-1040.534687 866.719532 2703.754234 221 226 231
-623.033762 -452.513170 2472.079849 144 150 133
-1035.225868 897.319126 2632.851028 214 220 225
-988.444710 572.346497 3233.473587 202 213 217
-1016.312599 783.929348 2908.388901 228 227 229
-465.962648 -876.447773 2291.756058 165 177 181
-976.406956 598.794127 3176.482964 207 217 221
-547.116470 -664.186335 2571.334076 90 102 90
-546.038246 -664.466286 2563.425827 90 102 90
-449.495792 -870.744705 2182.542229 164 176 179
-1004.741096 905.667496 2641.711235 208 214 219
-968.406391 651.105022 3137.965393 201 213 219
-1003.199387 896.826839 2665.567589 223 229 234
-1004.453850 915.161800 2618.065071 229 235 240
-997.787571 923.364735 2626.915359 209 215 220
-994.730568 928.628254 2582.427406 222 228 233
-994.730568 928.628254 2582.427406 222 228 233
-950.939560 650.884533 3095.559120 228 237 241
-991.293621 932.918072 2584.251785 174 180 185
-953.654289 718.013811 3015.519333 126 136 143
-980.740738 948.253918 2533.477974 179 183 188
-921.781921 605.064583 3159.480286 230 236 241
-951.275063 771.318150 2943.202782 200 211 215
-941.986179 733.557463 2993.179703 202 211 215
-969.669724 916.150570 2607.909584 213 219 224
-971.117878 939.193439 2554.113007 213 219 226
-970.750713 944.156170 2569.944000 225 231 236
-599.453068 -239.902925 2163.645172 254 254 240
-966.452599 929.275799 2624.506950 213 219 224
-971.779728 957.379055 2583.045006 174 180 185
-597.360468 -242.212224 2164.133644 116 118 95
-933.368492 790.662718 2890.236855 197 206 210
-956.422997 962.480736 2545.901680 185 189 194
-952.593899 938.879013 2610.483932 228 234 239
-951.072025 952.938366 2583.604431 173 179 184
-946.644211 942.294693 2614.012718 231 237 242
-944.415188 948.342037 2568.249130 229 235 242
-941.149902 931.384182 2657.319450 220 226 231
-941.149902 931.384182 2657.319450 220 226 231
-935.071182 927.873135 2677.105331 215 221 226
-934.254551 963.617992 2509.245491 243 244 247
-932.013607 939.171028 2617.261505 175 181 186
-934.305573 954.098606 2597.187042 228 234 239
-934.074783 967.461872 2546.699333 243 246 249
-591.449690 -162.366939 2174.002075 67 72 71
-913.513279 913.238144 2675.298691 162 171 175
-914.177799 928.390503 2693.376541 205 214 218
-914.604282 942.251015 2611.690521 170 176 181
-921.068001 978.471851 2515.713501 238 241 245
-921.800995 984.209919 2508.976746 117 121 126
-918.780804 978.408813 2529.452324 235 238 242
-906.638908 948.598576 2591.166306 222 228 233
-906.638908 948.598576 2591.166306 222 228 233
-910.367012 976.474380 2521.323204 226 229 233
-906.643677 987.728405 2512.715721 124 128 133
-905.755424 986.437130 2571.991158 181 184 188
-905.578995 991.032124 2535.623169 177 181 184
-899.509144 973.020077 2587.273216 178 181 185
-883.226967 910.256767 2655.601692 199 208 212
-905.829239 1007.858181 2522.559547 213 214 218
-899.359512 986.607742 2598.638344 234 236 237
-886.207485 940.289783 2635.333443 214 221 226
-895.672321 986.518002 2520.509148 245 246 248
-363.166022 -866.691971 2170.719528 154 158 133
-896.431637 1007.039642 2510.463333 237 238 242
-896.579075 1010.039330 2538.936996 121 124 128
-896.579075 1010.039330 2538.936996 121 124 128
-878.126812 939.739895 2690.947151 159 166 171
-891.905212 1001.164055 2538.999367 233 236 237
-377.216887 -802.023602 2093.126106 92 94 72
-883.284569 976.253605 2584.188843 238 239 242
-359.014368 -866.605759 2175.798607 151 155 130
-880.491066 978.627110 2548.794174 239 239 240
-880.491066 978.627110 2548.794174 239 239 240
-876.724720 979.846859 2541.234398 241 243 243
-875.155830 982.878208 2593.269157 209 212 216
-855.333042 911.567497 2704.458237 207 216 220
-871.274185 976.470280 2569.946289 166 171 174
-872.770786 982.086182 2570.885468 244 248 248
-872.672462 981.611443 2581.965065 217 220 224
-873.159409 988.860893 2560.581589 233 235 237
-873.159409 988.860893 2560.581589 233 235 237
-873.108578 991.510868 2508.509636 190 191 195
-873.828602 995.285511 2537.504768 238 237 239
-855.097771 927.555370 2723.536873 155 164 168
-864.053440 965.562725 2627.175713 225 229 232
-874.023819 1008.901119 2540.486145 155 158 162
-874.023819 1008.901119 2540.486145 155 158 162
-866.476536 992.639160 2545.288849 241 243 244
-866.556740 994.960880 2561.045265 237 240 244
-859.881115 972.242737 2594.851303 200 207 210
-869.248009 1015.200043 2553.841972 225 224 226
-858.312511 980.729866 2603.575516 159 166 169
-865.160084 1007.476902 2530.595970 223 226 230
-861.535454 998.333931 2538.625526 232 231 233
-850.405884 960.956001 2646.880341 228 233 234
-855.671597 984.512711 2575.111008 231 234 238
-863.050556 1014.803314 2503.272438 188 187 189
-845.297813 949.546814 2686.881256 175 182 185
-849.468708 966.271782 2638.044930 230 235 236
-849.468708 966.271782 2638.044930 230 235 236
-856.422901 993.785858 2527.621460 112 115 119
-856.415939 994.562626 2548.643684 122 126 131
-856.415939 994.562626 2548.643684 122 126 131
-857.471085 1001.965427 2518.775749 201 204 208
-854.638481 994.730663 2478.519058 228 227 229
-857.163620 1013.899994 2524.950790 248 249 252
-800.493717 806.732273 2926.537895 170 182 184
-855.794048 1011.250401 2541.370201 135 138 142
-855.794048 1011.250401 2541.370201 135 138 142
-851.025295 1000.455666 2553.024101 230 234 238
-851.312351 1013.312817 2524.935722 111 113 117
-828.702641 938.925171 2659.643364 210 219 222
-847.870636 1012.777233 2536.651421 185 188 192
-848.643494 1016.875267 2514.743423 118 122 125
-848.643494 1016.875267 2514.743423 118 122 125
-839.366817 986.821175 2577.530861 236 239 243
-845.366764 1010.109520 2544.069099 121 124 128
-845.366764 1010.109520 2544.069099 121 124 128
-839.990139 1000.578403 2561.797142 178 183 186
-840.147495 1007.655048 2534.198189 224 227 229
-837.334251 1012.236214 2552.796555 114 117 121
-823.786736 975.331879 2570.017433 180 185 188
-830.192566 1007.892227 2551.341248 177 181 185
-830.192566 1007.892227 2551.341248 177 181 185
-815.452862 958.642864 2652.888680 216 221 222
-827.543545 1000.662231 2527.876663 222 224 225
-801.222992 913.375092 2719.005203 218 220 220
-828.498459 1007.489204 2522.568321 238 237 239
-822.738838 991.369343 2577.758789 237 239 240
-815.663815 974.126625 2637.397957 215 222 225
-807.126522 944.580460 2677.342796 213 221 224
-827.797890 1017.850876 2515.647697 235 237 238
-816.606140 984.876537 2600.249100 225 230 233
-820.016670 997.529697 2554.892731 240 241 245
-824.174881 1026.536560 2531.937981 231 230 234
-819.362736 1011.535549 2535.376930 230 232 233
-819.362736 1011.535549 2535.376930 230 232 233
-800.663185 954.615116 2657.943916 214 221 224
-800.663185 954.615116 2657.943916 214 221 224
-819.936275 1024.384975 2540.964508 237 239 240
-804.999638 976.587677 2619.756699 220 227 230
-787.181187 929.004097 2701.818085 210 219 223
-815.512371 1023.221207 2526.513290 239 238 240
-814.941597 1023.254013 2510.818481 240 239 241
-804.076958 984.138775 2521.936798 149 152 156
-807.779789 1009.299088 2532.519150 232 234 238
-811.946678 1026.390934 2516.112137 179 178 182
-811.308289 1026.657391 2521.878242 249 248 251
-802.143669 1000.803757 2569.915199 237 240 243
-803.028393 1004.001999 2556.308937 127 130 134
-804.072666 1009.228039 2568.008041 239 240 244
-797.908068 990.579224 2614.315414 218 223 226
-805.716801 1021.747684 2586.366653 206 208 212
-802.749252 1017.615986 2526.453018 240 240 243
-803.909016 1024.395561 2554.150772 227 230 234
-793.459511 992.820835 2596.576691 176 181 184
-792.839098 1009.651756 2554.055214 141 144 148
-794.011164 1014.911842 2536.926651 231 232 236
-787.355137 999.048710 2564.247894 195 197 198
-788.264132 1016.950607 2560.597038 218 221 225
-521.487141 7.188260 2053.953552 116 125 121
-783.109093 1024.551010 2533.971977 238 237 239
-766.993904 978.766441 2608.683014 230 236 239
-400.576448 -474.272156 1951.857948 119 130 120
-782.481050 1031.331062 2523.283768 199 198 200
-775.749540 1018.743706 2575.143242 124 128 131
-780.524254 1046.609211 2495.590401 247 246 248
-760.320950 999.133205 2586.667442 227 231 235
-761.073875 1013.989544 2539.048958 250 248 250
-756.763172 1003.411198 2557.259369 137 140 148
-685.339594 794.130945 2898.073006 221 227 230
-754.029989 1008.636665 2579.647636 224 224 227
-747.191763 1001.873398 2595.485878 225 230 233
-759.465218 1041.794872 2522.833824 251 251 253
-762.953472 1049.703121 2489.270592 249 248 249
-755.703878 1029.663181 2501.948166 206 205 207
-755.703878 1029.663181 2501.948166 206 205 207
-746.604967 1012.260151 2569.198227 156 159 167
-743.012857 1010.236359 2589.159393 226 229 233
-715.490103 936.108971 2723.609161 160 169 172
-336.201000 -645.891619 1893.051338 79 86 54
-736.527061 1012.910175 2580.011559 231 234 239
-736.651182 1017.481804 2570.810509 222 226 231
-746.800947 1039.420795 2479.904366 251 250 251
-715.576172 960.031414 2657.586288 228 235 238
-730.051565 1007.020283 2592.689323 176 180 183
-732.664204 1015.401745 2573.910904 151 155 160
-720.681238 996.742725 2611.243248 184 188 191
-720.681238 996.742725 2611.243248 184 188 191
-724.541283 1012.722206 2583.822632 144 147 151
-736.679888 1047.797775 2494.365692 237 238 242
-717.586088 993.715572 2571.672249 214 217 221
-718.415737 1020.743942 2595.767975 166 171 174
-730.890942 1055.297470 2509.694672 244 245 248
-705.604124 1020.458126 2575.796890 216 220 225
-684.490204 1008.635521 2599.825287 226 231 234
-690.503359 1032.714272 2599.564171 199 204 207
-681.488895 1002.318573 2612.424469 168 175 178
-685.571480 1014.455891 2591.366577 232 235 239
-699.859333 1058.919907 2485.301590 253 252 254
-687.045431 1054.917431 2517.633057 250 249 251
-673.661041 1036.948681 2620.490074 218 223 226
-301.245451 -643.949318 1879.244804 136 142 101
-664.222240 1023.786545 2600.308228 123 129 134
-664.222240 1023.786545 2600.308228 123 129 134
-658.963346 1010.466099 2594.070244 216 221 224
-661.329317 1016.150856 2583.121681 223 226 230
-645.988274 993.873310 2640.431595 228 233 236
-667.460442 1051.591396 2558.337975 227 230 234
-640.802097 995.122719 2643.779564 179 184 187
-640.802097 995.122719 2643.779564 179 184 187
-672.955704 1070.894146 2497.400665 245 244 248
-656.515598 1043.540573 2556.396103 192 193 197
-654.831171 1050.561714 2558.113289 233 234 238
-626.903915 990.979576 2661.853409 221 228 231
-613.865232 962.776089 2678.955841 216 223 226
-636.045694 1038.731384 2574.344063 234 237 241
-627.716208 1013.888073 2588.962173 204 208 213
-632.867670 1038.241196 2560.416031 232 233 237
-264.347506 -677.698421 1938.889313 178 182 152
-627.188349 1044.665718 2565.275002 183 186 190
-614.987850 1016.167736 2609.089851 214 217 222
-624.833870 1037.748814 2541.412926 193 194 198
-624.574518 1052.445316 2537.303162 238 240 241
-626.112318 1065.422058 2543.721771 200 202 203
-583.192825 977.103806 2663.254929 219 226 229
-627.028370 1078.253937 2494.808769 249 248 250
-609.880352 1052.839756 2571.099091 193 194 198
-596.120071 1009.971428 2591.515350 222 228 231
-611.648417 1054.867458 2528.378677 246 245 247
-590.185547 1016.514206 2610.196304 144 150 157
-289.015055 -558.135748 1834.706306 181 178 148
-603.086424 1047.360325 2548.323250 244 246 246
-547.605324 921.952343 2752.595901 222 230 230
-422.579908 28.376186 1914.459801 175 178 165
-592.808199 1035.999203 2576.944160 229 229 233
-599.560785 1055.112648 2549.661636 202 204 205
-599.560785 1055.112648 2549.661636 202 204 205
-537.250328 927.621746 2771.352577 162 171 174
-584.971809 1030.729389 2547.199821 243 244 248
-569.744873 1036.004543 2652.238083 219 224 227
-584.659624 1052.791691 2557.485962 233 234 238
-586.022663 1081.619167 2507.083130 202 201 203
-564.332581 1041.507816 2581.435585 226 229 233
-573.140574 1057.890892 2541.985321 196 198 199
-561.719179 1041.240883 2585.111427 185 188 192
-542.042255 1000.313091 2615.965271 211 216 219
-575.731039 1086.625767 2518.213844 249 248 250
-563.394117 1065.539742 2562.840462 201 203 204
-574.848747 1092.261791 2487.771225 254 253 254
-387.781358 -15.028135 1884.242630 108 109 85
-568.670464 1098.251629 2517.940140 247 246 248
-568.670464 1098.251629 2517.940140 247 246 248
-315.385199 -318.570423 1848.072624 157 171 132
-556.017733 1081.357574 2512.553215 193 194 198
-312.930465 -313.927913 1853.686333 145 159 118
-311.174059 -314.740944 1855.052567 58 66 41
-545.756292 1070.756245 2527.670670 246 248 249
-547.065115 1088.575268 2501.415062 250 249 252
-531.873369 1068.383884 2548.737144 238 240 241
-359.445524 47.146377 2062.951088 148 137 109
-517.144823 1031.237888 2579.480362 236 241 244
-515.690708 1045.820999 2586.575127 179 184 187
-517.710161 1024.630451 2527.001762 187 190 194
-547.751522 1116.105080 2454.195023 246 245 247
-517.963982 1066.552830 2564.211655 229 233 237
-524.346972 1078.092194 2536.418152 237 239 240
-538.340569 1111.304379 2469.565010 201 200 202
-485.727358 1024.923134 2635.890961 207 213 218
-524.633646 1099.149036 2496.911240 253 252 254
-523.643589 1100.521278 2503.335571 194 195 199
-515.189314 1082.486248 2493.623161 248 249 252
-478.552771 1021.348381 2616.856194 228 232 234
-493.317890 1050.424290 2560.320473 230 233 237
-513.248587 1100.252151 2486.354828 240 241 245
-322.846723 -93.562967 1940.466118 122 122 91
-284.228659 -301.068854 1875.639534 84 98 62
-467.717409 1024.340534 2621.061897 241 245 246
-464.428425 1018.288231 2630.183792 208 214 219
-499.634171 1102.973843 2483.010864 251 253 253
-504.838324 1114.280796 2464.123535 243 245 246
-447.060585 1003.604221 2640.933418 215 220 223
-497.398710 1114.882183 2482.854462 236 238 239
-497.398710 1114.882183 2482.854462 236 238 239
-374.437332 591.992378 2480.317497 147 163 156
-489.605522 1100.644970 2482.138824 249 251 252
-439.491844 1003.419113 2630.866241 138 144 149
-474.791574 1105.866337 2493.025780 197 199 200
-465.935183 1092.309284 2505.764198 238 239 243
-483.968306 1127.978802 2449.848557 252 251 253
-472.527552 1117.015457 2465.724945 235 237 238
-377.594876 928.741932 2714.460945 189 200 197
-463.717413 1105.394363 2480.081177 230 232 233
-290.648055 -90.373152 1946.184540 160 158 123
-359.885478 -349.262285 1293.056870 175 178 165
-318.507648 -17.522478 1884.943581 173 169 144
-340.511584 -192.335558 1580.290794 132 132 109
-462.349987 1115.402031 2470.526123 242 244 245
-454.306507 1121.941376 2475.440598 245 247 250
-446.972609 1127.084541 2467.516327 237 239 240
-413.408899 1071.528530 2539.335060 233 238 241
-298.909378 -18.673381 1893.870354 88 89 57
-298.909378 -18.673381 1893.870354 88 89 57
-259.524322 -111.431110 1979.850578 123 127 101
-375.257993 1033.064842 2668.630028 194 203 207
-135.934138 98.869669 2802.754211 52 53 44
-440.053749 1126.291370 2446.372223 236 238 238
-395.455813 1057.621384 2577.529907 171 178 181
-438.911772 1127.121067 2438.202477 240 242 242
-441.303301 1144.393253 2434.053421 240 241 245
-291.312456 -20.269850 1900.400352 95 96 64
-429.987955 1116.893005 2458.177567 236 239 243
-423.158312 1116.967869 2482.350349 230 233 237
-392.742062 1072.206402 2539.360619 232 237 240
-388.757610 1064.409065 2546.396446 224 231 233
-404.673624 1109.589386 2494.535828 244 246 247
-399.674273 1104.667568 2484.510803 178 183 186
-422.053432 1149.311447 2425.476646 189 190 194
-413.066530 1134.426403 2447.543907 188 191 195
-402.147913 1121.238899 2479.445839 170 175 178
-418.389702 1135.232544 2416.906929 240 239 243
-329.190397 969.535065 2634.954262 192 201 204
-277.475595 -10.812535 1892.835426 141 143 114
-121.200597 165.670180 2762.223244 58 60 54
-121.200597 165.670180 2762.223244 58 60 54
-329.615808 1075.473118 2718.913078 190 199 202
-374.296355 1088.401604 2528.971481 221 226 229
-329.267836 1032.117081 2672.137451 190 199 202
-370.529652 1074.280071 2529.370117 221 226 229
-102.785766 134.445286 2784.364319 61 62 58
-376.282144 1107.671356 2520.074844 174 179 182
-394.588923 1115.431023 2438.765335 174 179 182
-403.032732 1141.949463 2422.572327 180 183 187
-401.166582 1138.418102 2425.321388 236 239 243
-401.166582 1138.418102 2425.321388 236 239 243
-309.309125 1017.100143 2688.161850 197 204 207
-402.082777 1149.960899 2414.538383 180 181 184
-102.910674 186.005902 2785.253334 61 65 60
-102.910674 186.005902 2785.253334 61 65 60
-383.360052 1127.583694 2435.347748 224 229 232
-388.142848 1154.144096 2427.298164 218 223 226
-385.048151 1143.390656 2427.301407 225 230 233
-378.961277 1118.819237 2431.163597 172 177 180
-42.910415 99.361759 2901.996231 107 110 109
-353.720593 1109.918404 2514.155006 231 238 241
-83.676821 161.845303 2766.932297 53 53 47
-376.484489 1164.442348 2427.974892 173 178 181
-224.773955 1136.214924 2985.201263 118 151 144
-272.477221 974.911308 2634.986115 125 136 140
-350.453448 1138.227844 2451.929092 238 243 246
-365.130210 1159.476089 2408.603859 239 240 244
-365.130210 1159.476089 2408.603859 239 240 244
-356.164289 1156.940460 2426.938438 234 239 242
-341.801500 1126.522827 2453.188324 209 216 219
-246.136546 61.563605 1907.301521 119 126 111
-347.149897 1149.477291 2414.333534 217 223 228
-352.085805 1158.718204 2397.609711 233 237 242
-348.084021 1170.129299 2407.439232 161 166 171
-315.157080 1121.752548 2487.010956 161 168 171
-185.522902 -105.594659 1977.894974 161 154 121
-323.471022 1162.353611 2404.092407 163 169 174
-163.295054 -107.456458 1981.657600 140 138 104
-305.505371 1164.493752 2409.247780 165 171 176
-294.362259 1161.715221 2419.105530 221 226 229
-275.053477 1155.691910 2419.795418 212 219 222
-267.753577 1152.821350 2440.841866 219 226 229
38.534823 -761.490870 2087.338448 254 255 253
-251.997423 1193.402004 2394.904327 210 216 219
41.879937 -744.262552 2072.466087 90 95 233
41.879937 -744.262552 2072.466087 90 95 233
35.675076 -736.731482 2037.696648 252 254 254
-197.018206 1165.454578 2435.138702 201 208 212
85.370076 -757.177448 2099.301338 164 147 214
-66.071171 350.528455 2253.764343 109 111 107
97.101504 -736.653900 2089.636040 254 252 254
-107.830501 50.999689 1919.195366 119 127 115
47.071880 -660.739088 1969.029617 154 160 136
-44.457272 248.656178 2174.423981 115 118 114
-36.946136 303.259015 2222.131157 174 182 181
-34.676647 -118.934143 1988.435555 122 122 86
-113.476372 1158.005619 2427.372742 211 218 221
-28.460509 250.310826 2180.828285 107 111 110
-86.496621 50.598794 1922.279739 118 126 120
-25.412875 244.064760 2178.666115 179 189 189
-13.047519 293.718672 2214.573479 169 180 178
-15.380040 285.927963 2203.256798 169 180 178
-13.570601 248.187065 2181.147575 115 118 115
7.865869 338.231373 2268.557930 174 179 178
-5.588477 250.444698 2188.173294 121 126 126
-5.588477 250.444698 2188.173294 121 126 126
3.889029 252.046561 2190.740204 113 118 117
16.389957 319.894505 2245.101166 176 184 183
9.607603 254.260230 2193.736458 174 180 179
16.690786 293.559527 2229.825401 114 134 130
16.690786 293.559527 2229.825401 114 134 130
20.348273 322.346187 2246.248627 119 124 123
20.472063 315.563250 2241.636467 125 131 130
24.613391 336.049008 2260.704613 173 179 178
13.043931 250.070810 2189.459419 117 124 121
21.415842 251.817441 2194.767570 107 113 111
26.245332 248.733425 2197.256279 179 190 188
33.757132 274.914861 2221.473122 176 186 185
31.739014 241.717315 2188.697433 177 189 186
31.739014 241.717315 2188.697433 177 189 186
48.694596 330.620718 2263.066483 126 131 130
54.983711 299.788404 2228.617859 177 185 184
66.991508 317.401814 2246.337318 179 186 186
78.204864 320.549178 2256.722450 129 134 135
81.076968 307.768703 2248.411942 120 126 125
68.055576 242.699504 2191.094780 123 130 125
68.055576 242.699504 2191.094780 123 130 125
71.926266 -121.692646 2046.685791 24 24 12
91.136652 324.241972 2267.725372 177 185 184
90.782547 337.318683 2271.824455 121 122 120
79.901952 245.901251 2199.534225 119 129 123
97.167897 310.656357 2255.349350 124 131 130
99.360418 323.292875 2263.047600 183 189 188
127.971470 430.427980 2367.518425 119 118 118
89.352435 246.036744 2204.332733 175 184 187
102.193415 249.248219 2208.930397 117 135 147
120.240295 329.108095 2267.193794 123 125 125
125.149107 325.266051 2273.835182 128 136 135
126.492655 317.344499 2260.768890 180 190 188
133.528006 1086.517811 2527.872849 201 212 215
272.460485 936.431885 2722.563362 161 175 178
57.468903 42.742661 1941.839790 106 114 103
162.098920 254.328060 2232.034111 178 187 186
62.995750 38.363266 1941.195679 63 72 65
185.960627 1074.930382 2522.726822 149 161 163
85.945195 42.584532 1951.378632 60 71 63
143.029177 -508.623552 1866.855431 89 94 73
342.679691 -782.884550 2158.496094 151 153 138
310.200858 1040.864849 2603.181267 198 210 214
238.823390 1251.875687 2291.662598 199 208 212
230.496192 37.452123 1979.602051 74 82 72
230.496192 37.452123 1979.602051 74 82 72
232.545829 42.340642 1977.393723 120 129 127
277.755976 -574.377346 1895.226479 143 145 126
281.112194 1224.432564 2302.200699 193 205 211
311.943150 1251.102829 2330.785370 207 214 219
308.690166 1210.043812 2303.758812 205 212 217
395.666671 1126.868248 2423.437119 219 230 234
331.148767 1222.560978 2330.153275 208 217 221
394.743800 1213.729572 2356.440544 203 214 218
329.033208 -578.347874 1897.475243 175 180 159
338.321400 26.044080 1986.988258 142 150 139
590.714264 1065.707493 2527.231789 160 171 179
521.239567 -182.310402 2198.240280 112 109 104
370.626760 27.635023 2003.534698 79 86 79
432.230473 1220.306301 2299.956512 215 224 228
399.441099 1277.392673 2254.097176 218 223 226
370.057344 23.634346 1990.817070 141 148 142
602.740669 1086.313057 2470.366669 151 164 171
563.531399 -187.153935 2090.987015 100 104 92
533.248758 -213.276100 2043.487167 196 209 211
461.787462 -489.866447 1909.553719 134 138 126
524.672079 -504.515791 1985.167885 74 76 70
456.721830 -520.298386 1886.662102 74 76 70
456.721830 -520.298386 1886.662102 74 76 70
493.460464 -595.670366 1923.756409 167 167 154
627.890158 1197.956085 2305.192375 129 142 146
565.319490 -140.501142 2033.055305 197 209 211
618.096972 1255.207729 2243.710899 217 224 231
591.337776 1296.302700 2211.381340 214 223 227
640.207100 1249.632740 2236.507797 130 142 148
640.207100 1249.632740 2236.507797 130 142 148
630.772495 1254.010773 2221.233749 223 231 238
756.218243 1146.156597 2360.729790 222 231 234
644.270325 1262.346840 2227.159119 130 142 148
746.740913 1186.351204 2323.163605 216 227 231
704.977179 1270.131779 2222.047043 173 182 186
704.977179 1270.131779 2222.047043 173 182 186
318.360591 633.544111 1707.862282 130 142 148
-3.155111 -7.392663 1249.368954 223 231 238
-524.371529 -497.182941 1763.149452 130 141 147
-524.371529 -497.182941 1763.149452 130 141 147
-1079.189968 501.651001 3164.001465 225 231 236
-1079.189968 501.651001 3164.001465 225 231 236
-1057.183361 504.547215 3162.708664 223 230 235
-1019.827938 888.228416 2597.755241 220 228 235
-1023.825073 331.293058 3446.949768 208 217 221
-1005.516624 969.690895 2480.013466 207 215 222
-1003.447914 866.303349 2634.132385 218 227 231
-401.316547 -574.661446 1406.546974 212 222 226
-990.528107 730.253315 2833.948898 228 230 234
-708.603191 337.194490 1840.374947 225 234 238
-685.315418 -205.788112 2386.518478 189 201 206
-987.616825 982.977867 2488.953590 147 155 162
-979.760456 536.806488 3138.204002 198 209 213
-976.559925 473.860073 3222.079086 210 217 221
-652.161503 -236.535597 2277.598000 189 201 206
-969.705200 500.317955 3195.979500 207 218 220
-969.810009 502.429104 3201.791000 209 219 221
-971.404648 941.220284 2554.324150 219 225 230
-958.912182 602.953959 3038.655853 202 214 216
-971.371651 987.978840 2497.337723 146 152 159
-971.371651 987.978840 2497.337723 146 152 159
-959.628105 954.067802 2529.048157 235 239 244
-962.034512 1017.753983 2449.235916 238 238 243
